0.726159 -1.263050 0.490865 0.000000 0.000000 0.000000
0.724036 -1.283070 0.497851 0.000000 0.000000 0.000000
1.028220 -1.385890 0.368142 0.000000 0.000000 0.000000
0.815818 -1.307710 0.497810 0.000000 0.000000 0.000000
1.027780 -1.384880 0.398946 0.000000 0.000000 0.000000
1.009110 -1.390850 0.523881 0.000000 0.000000 0.000000
0.931507 -1.168660 0.430788 0.000000 0.000000 0.000000
0.720105 -1.240800 0.490284 0.000000 0.000000 0.000000
0.914282 -1.259860 0.458061 0.000000 0.000000 0.000000
0.920826 -1.174150 0.476292 0.000000 0.000000 0.000000
0.715723 -1.238850 0.494695 0.000000 0.000000 0.000000
0.838404 -1.319630 0.492457 0.000000 0.000000 0.000000
0.801192 -1.314860 0.502174 0.000000 0.000000 0.000000
0.804431 -1.316530 0.505287 0.000000 0.000000 0.000000
0.797440 -1.202880 0.478658 0.000000 0.000000 0.000000
1.015010 -1.212440 0.435894 0.000000 0.000000 0.000000
1.071730 -1.768250 0.428635 0.000000 0.000000 0.000000
1.075600 -1.821270 0.508182 0.000000 0.000000 0.000000
1.046680 -1.578140 0.507725 0.000000 0.000000 0.000000
0.926459 -0.951187 0.393680 0.000000 0.000000 0.000000
0.831073 -0.933614 0.410034 0.000000 0.000000 0.000000
0.982180 -1.277470 0.448206 0.000000 0.000000 0.000000
0.398020 -0.464144 0.291034 0.000000 0.000000 0.000000
0.536799 -0.536528 0.341756 0.000000 0.000000 0.000000
0.702043 -0.516223 0.322406 0.000000 0.000000 0.000000
0.774966 -0.523124 0.308780 0.000000 0.000000 0.000000
0.571255 -0.529687 0.302469 0.000000 0.000000 0.000000
1.039790 -0.593842 0.225183 0.000000 0.000000 0.000000
0.483286 -0.558933 0.324542 0.000000 0.000000 0.000000
0.802639 -0.483845 0.288428 0.000000 0.000000 0.000000
0.707373 -0.526840 0.297028 0.000000 0.000000 0.000000
0.845324 -0.542439 0.116688 0.000000 0.000000 0.000000
1.003880 -0.566671 0.123462 0.000000 0.000000 0.000000
0.907716 -0.483786 0.049075 0.000000 0.000000 0.000000
0.787724 -0.977396 0.419462 0.000000 0.000000 0.000000
1.041470 -1.134850 0.325665 0.000000 0.000000 0.000000
0.937883 -1.294060 0.430463 0.000000 0.000000 0.000000
1.031870 -0.959325 0.344639 0.000000 0.000000 0.000000
0.871393 -1.007930 0.428857 0.000000 0.000000 0.000000
1.039180 -1.070830 0.321330 0.000000 0.000000 0.000000
1.034720 -0.562027 0.197093 0.000000 0.000000 0.000000
0.983005 -0.572872 -0.001629 0.000000 0.000000 0.000000
1.014100 -0.735705 0.151492 0.000000 0.000000 0.000000
0.987939 -0.686866 0.035983 0.000000 0.000000 0.000000
0.187926 -0.902139 0.500100 0.000000 0.000000 0.000000
0.749516 -0.474708 0.278897 0.000000 0.000000 0.000000
0.157268 -0.469120 0.120580 0.000000 0.000000 0.000000
1.017200 -0.546730 0.224565 0.000000 0.000000 0.000000
1.000100 -0.583755 0.245124 0.000000 0.000000 0.000000
1.002860 -0.593457 0.130722 0.000000 0.000000 0.000000
0.816505 -0.939765 0.407930 0.000000 0.000000 0.000000
0.876510 -1.019360 0.424004 0.000000 0.000000 0.000000
1.041860 -1.106570 0.296879 0.000000 0.000000 0.000000
0.874901 -0.945221 0.407331 0.000000 0.000000 0.000000
1.029110 -1.186490 0.360752 0.000000 0.000000 0.000000
0.869276 -1.008620 0.427999 0.000000 0.000000 0.000000
0.929758 -1.203830 0.475132 0.000000 0.000000 0.000000
0.922232 -1.173610 0.478878 0.000000 0.000000 0.000000
0.932789 -1.194540 0.437465 0.000000 0.000000 0.000000
0.181199 -0.456130 0.326658 0.000000 0.000000 0.000000
0.281444 -0.442566 0.383517 0.000000 0.000000 0.000000
0.587613 -0.457265 0.272293 0.000000 0.000000 0.000000
0.374757 -0.461864 0.310111 0.000000 0.000000 0.000000
0.338910 -0.474785 0.242642 0.000000 0.000000 0.000000
0.318593 -0.472655 0.231643 0.000000 0.000000 0.000000
0.333747 -0.495524 0.166259 0.000000 0.000000 0.000000
0.397367 -0.475103 0.231684 0.000000 0.000000 0.000000
0.336746 -0.475766 0.242787 0.000000 0.000000 0.000000
0.287395 -0.471351 0.301731 0.000000 0.000000 0.000000
0.347222 -0.482443 0.213675 0.000000 0.000000 0.000000
0.328789 -0.478798 0.243928 0.000000 0.000000 0.000000
0.302650 -0.475138 0.267519 0.000000 0.000000 0.000000
0.297598 -0.477466 0.257141 0.000000 0.000000 0.000000
0.988738 -0.836845 0.054413 0.000000 0.000000 0.000000
1.043190 -1.057720 0.258649 0.000000 0.000000 0.000000
1.038630 -1.029360 0.243373 0.000000 0.000000 0.000000
0.998313 -0.931410 0.079883 0.000000 0.000000 0.000000
1.036510 -1.025960 0.242785 0.000000 0.000000 0.000000
0.997252 -0.930545 0.079708 0.000000 0.000000 0.000000
1.033390 -1.495740 0.416542 0.000000 0.000000 0.000000
1.025490 -1.547780 0.601178 0.000000 0.000000 0.000000
1.038950 -1.533970 0.553727 0.000000 0.000000 0.000000
1.034740 -1.564720 0.565246 0.000000 0.000000 0.000000
0.788337 -1.202350 0.481358 0.000000 0.000000 0.000000
1.031030 -1.486270 0.658875 0.000000 0.000000 0.000000
0.889436 -1.517080 0.659340 0.000000 0.000000 0.000000
0.718116 -1.291000 0.503175 0.000000 0.000000 0.000000
1.025570 -1.529740 0.547087 0.000000 0.000000 0.000000
0.784076 -1.204030 0.479077 0.000000 0.000000 0.000000
1.007810 -1.389160 0.524367 0.000000 0.000000 0.000000
1.023810 -1.488450 0.358774 0.000000 0.000000 0.000000
0.173893 -0.669143 0.175641 0.000000 0.000000 0.000000
1.022940 -1.142400 0.428025 0.000000 0.000000 0.000000
1.041530 -1.154570 0.388615 0.000000 0.000000 0.000000
1.043900 -1.053770 0.383130 0.000000 0.000000 0.000000
1.043870 -1.116930 0.390431 0.000000 0.000000 0.000000
0.769891 -0.898143 0.500747 0.000000 0.000000 0.000000
0.686769 -0.977838 0.423719 0.000000 0.000000 0.000000
0.914455 -1.017210 0.398351 0.000000 0.000000 0.000000
0.806198 -1.106270 0.564076 0.000000 0.000000 0.000000
0.681933 -0.995353 0.429976 0.000000 0.000000 0.000000
0.744932 -1.091110 0.564786 0.000000 0.000000 0.000000
0.702735 -0.517156 0.321705 0.000000 0.000000 0.000000
0.972131 -0.555749 0.130832 0.000000 0.000000 0.000000
0.463783 -0.542331 0.324397 0.000000 0.000000 0.000000
0.436493 -0.546332 0.312509 0.000000 0.000000 0.000000
1.069820 -0.587970 0.252227 0.000000 0.000000 0.000000
0.378636 -0.471274 0.312167 0.000000 0.000000 0.000000
1.034290 -0.539968 0.145290 0.000000 0.000000 0.000000
0.724717 -1.264460 0.490916 0.000000 0.000000 0.000000
0.855538 -1.327580 0.435137 0.000000 0.000000 0.000000
0.905583 -1.248800 0.474386 0.000000 0.000000 0.000000
1.028920 -1.407040 0.372440 0.000000 0.000000 0.000000
0.716550 -1.212190 0.506882 0.000000 0.000000 0.000000
1.029480 -1.350220 0.403984 0.000000 0.000000 0.000000
1.030050 -1.390450 0.353982 0.000000 0.000000 0.000000
0.884665 -1.023250 0.421148 0.000000 0.000000 0.000000
0.691719 -0.826797 0.417771 0.000000 0.000000 0.000000
0.755641 -0.871100 0.503583 0.000000 0.000000 0.000000
0.690433 -0.956644 0.512237 0.000000 0.000000 0.000000
0.722787 -0.927160 0.512933 0.000000 0.000000 0.000000
0.702491 -0.960660 0.522033 0.000000 0.000000 0.000000
0.863443 -1.021820 0.428884 0.000000 0.000000 0.000000
0.686385 -0.801256 0.497097 0.000000 0.000000 0.000000
0.722719 -0.926917 0.513378 0.000000 0.000000 0.000000
0.887556 -1.026570 0.433502 0.000000 0.000000 0.000000
0.680744 -0.913232 0.409089 0.000000 0.000000 0.000000
0.175753 -0.478366 0.269634 0.000000 0.000000 0.000000
0.180539 -0.461604 0.319067 0.000000 0.000000 0.000000
0.157448 -0.457924 0.115471 0.000000 0.000000 0.000000
1.009430 -0.562832 0.198745 0.000000 0.000000 0.000000
1.067570 -1.691160 0.526551 0.000000 0.000000 0.000000
0.788777 -1.578530 0.577921 0.000000 0.000000 0.000000
1.074770 -1.717710 0.518202 0.000000 0.000000 0.000000
1.035480 -1.545270 0.360231 0.000000 0.000000 0.000000
1.072380 -1.736010 0.420086 0.000000 0.000000 0.000000
1.073680 -1.718690 0.412675 0.000000 0.000000 0.000000
1.071250 -1.815880 0.504642 0.000000 0.000000 0.000000
1.069970 -1.672530 0.404030 0.000000 0.000000 0.000000
1.062930 -1.686260 0.524220 0.000000 0.000000 0.000000
0.751260 -1.576350 0.574417 0.000000 0.000000 0.000000
0.994085 -0.830052 0.333276 0.000000 0.000000 0.000000
0.976875 -0.782396 0.379539 0.000000 0.000000 0.000000
1.005560 -0.833815 0.217205 0.000000 0.000000 0.000000
1.018310 -0.705796 0.235269 0.000000 0.000000 0.000000
1.007750 -0.828004 0.217285 0.000000 0.000000 0.000000
1.006330 -0.798868 0.214815 0.000000 0.000000 0.000000
1.008120 -0.721361 0.293652 0.000000 0.000000 0.000000
1.007600 -0.825665 0.242555 0.000000 0.000000 0.000000
1.046450 -1.576970 0.521995 0.000000 0.000000 0.000000
1.044440 -1.575490 0.508162 0.000000 0.000000 0.000000
0.882323 -1.512400 0.653593 0.000000 0.000000 0.000000
0.902751 -1.543560 0.670660 0.000000 0.000000 0.000000
0.935393 -1.563380 0.584486 0.000000 0.000000 0.000000
1.038990 -1.567230 0.568688 0.000000 0.000000 0.000000
0.891131 -1.551050 0.663158 0.000000 0.000000 0.000000
0.938118 -1.551610 0.609982 0.000000 0.000000 0.000000
0.939732 -1.564830 0.588077 0.000000 0.000000 0.000000
0.939603 -1.552570 0.609070 0.000000 0.000000 0.000000
1.033750 -1.566870 0.568676 0.000000 0.000000 0.000000
1.071190 -1.782700 0.546347 0.000000 0.000000 0.000000
0.884458 -1.810350 0.577403 0.000000 0.000000 0.000000
1.058840 -1.694450 0.517815 0.000000 0.000000 0.000000
0.972927 -1.310030 0.455059 0.000000 0.000000 0.000000
0.875931 -1.583120 0.550305 0.000000 0.000000 0.000000
0.887530 -1.635300 0.564927 0.000000 0.000000 0.000000
0.890682 -1.818340 0.580133 0.000000 0.000000 0.000000
0.742021 -1.205560 0.480153 0.000000 0.000000 0.000000
0.746087 -1.197980 0.489284 0.000000 0.000000 0.000000
0.913993 -1.266340 0.452965 0.000000 0.000000 0.000000
0.733622 -1.197850 0.490672 0.000000 0.000000 0.000000
0.766786 -1.196860 0.489406 0.000000 0.000000 0.000000
0.859545 -1.209790 0.486998 0.000000 0.000000 0.000000
0.489789 -0.546631 0.350941 0.000000 0.000000 0.000000
0.164744 -0.625332 0.265461 0.000000 0.000000 0.000000
0.447891 -0.550060 0.318203 0.000000 0.000000 0.000000
0.153065 -0.687183 0.280580 0.000000 0.000000 0.000000
0.176302 -0.511655 0.106505 0.000000 0.000000 0.000000
0.089320 -0.362888 0.394565 0.000000 0.000000 0.000000
0.150732 -0.637778 0.323289 0.000000 0.000000 0.000000
0.148528 -0.389733 0.390120 0.000000 0.000000 0.000000
0.194410 -0.686094 0.137989 0.000000 0.000000 0.000000
0.156356 -0.622683 0.322508 0.000000 0.000000 0.000000
0.180303 -0.446708 0.382039 0.000000 0.000000 0.000000
0.165024 -0.631241 0.194440 0.000000 0.000000 0.000000
0.815593 -0.891783 0.391996 0.000000 0.000000 0.000000
0.906088 -1.060950 0.393533 0.000000 0.000000 0.000000
0.739761 -1.017880 0.547633 0.000000 0.000000 0.000000
0.935071 -0.947034 0.393202 0.000000 0.000000 0.000000
0.766680 -1.054800 0.555936 0.000000 0.000000 0.000000
0.752649 -0.888041 0.495288 0.000000 0.000000 0.000000
0.816961 -1.007750 0.424701 0.000000 0.000000 0.000000
0.737168 -1.018140 0.547428 0.000000 0.000000 0.000000
0.765295 -1.055750 0.553671 0.000000 0.000000 0.000000
1.042400 -1.044750 0.369675 0.000000 0.000000 0.000000
1.047490 -1.052680 0.382494 0.000000 0.000000 0.000000
1.042720 -1.045180 0.368938 0.000000 0.000000 0.000000
0.238920 -0.522886 0.092106 0.000000 0.000000 0.000000
0.206510 -0.526736 0.092086 0.000000 0.000000 0.000000
0.301705 -0.488036 0.212774 0.000000 0.000000 0.000000
0.706822 -0.940976 0.518497 0.000000 0.000000 0.000000
0.762542 -0.936112 0.409409 0.000000 0.000000 0.000000
0.892722 -1.148630 0.542668 0.000000 0.000000 0.000000
0.891506 -1.148600 0.542481 0.000000 0.000000 0.000000
0.824196 -1.127220 0.570711 0.000000 0.000000 0.000000
0.354911 -0.460600 0.294112 0.000000 0.000000 0.000000
0.179525 -0.498200 0.185991 0.000000 0.000000 0.000000
0.290677 -0.507373 0.135917 0.000000 0.000000 0.000000
0.318729 -0.498591 0.129906 0.000000 0.000000 0.000000
0.598893 -0.458017 0.229494 0.000000 0.000000 0.000000
0.466767 -0.460730 0.292162 0.000000 0.000000 0.000000
0.155118 -0.672927 0.243738 0.000000 0.000000 0.000000
0.542343 -2.024860 0.333790 0.000000 0.000000 0.000000
0.870069 -1.757630 0.559897 0.000000 0.000000 0.000000
0.559277 -2.025380 0.339219 0.000000 0.000000 0.000000
0.772376 -1.953530 0.541143 0.000000 0.000000 0.000000
0.850743 -1.220550 0.480568 0.000000 0.000000 0.000000
0.508015 -1.898980 0.563961 0.000000 0.000000 0.000000
0.666968 -1.679940 0.643644 0.000000 0.000000 0.000000
1.039180 -1.089700 0.382106 0.000000 0.000000 0.000000
1.043140 -1.089920 0.377981 0.000000 0.000000 0.000000
0.950069 -0.814182 0.370445 0.000000 0.000000 0.000000
0.729824 -0.454308 0.275406 0.000000 0.000000 0.000000
0.399679 -0.474373 0.230983 0.000000 0.000000 0.000000
0.331187 -0.480023 0.243267 0.000000 0.000000 0.000000
0.767036 -0.477318 0.279616 0.000000 0.000000 0.000000
0.702557 -0.470925 0.299883 0.000000 0.000000 0.000000
0.904653 -1.179580 0.507895 0.000000 0.000000 0.000000
0.906948 -1.065800 0.402197 0.000000 0.000000 0.000000
0.909075 -1.185530 0.492700 0.000000 0.000000 0.000000
0.898183 -1.065060 0.402462 0.000000 0.000000 0.000000
1.041500 -1.016130 0.266550 0.000000 0.000000 0.000000
1.008050 -0.855463 0.246296 0.000000 0.000000 0.000000
0.224503 -0.519945 0.096371 0.000000 0.000000 0.000000
1.022710 -1.314040 0.429546 0.000000 0.000000 0.000000
1.043850 -1.063400 0.375301 0.000000 0.000000 0.000000
1.038460 -1.079170 0.257040 0.000000 0.000000 0.000000
1.040900 -1.059310 0.257707 0.000000 0.000000 0.000000
1.018970 -1.206600 0.282876 0.000000 0.000000 0.000000
1.032300 -1.176520 0.394059 0.000000 0.000000 0.000000
1.037920 -1.026190 0.357592 0.000000 0.000000 0.000000
0.961670 -1.075700 0.145021 0.000000 0.000000 0.000000
1.041290 -1.145600 0.277805 0.000000 0.000000 0.000000
1.042760 -1.124910 0.385853 0.000000 0.000000 0.000000
0.459860 -0.575721 0.314164 0.000000 0.000000 0.000000
1.053500 -0.562174 0.196332 0.000000 0.000000 0.000000
0.164056 -0.630208 0.203763 0.000000 0.000000 0.000000
0.320097 -0.488810 0.173801 0.000000 0.000000 0.000000
0.297102 -0.466298 0.302443 0.000000 0.000000 0.000000
0.309058 -0.464908 0.319116 0.000000 0.000000 0.000000
0.894047 -0.708756 0.469698 0.000000 0.000000 0.000000
0.509579 -0.617052 0.283627 0.000000 0.000000 0.000000
1.010030 -0.714156 0.163456 0.000000 0.000000 0.000000
0.533212 -0.527549 0.310669 0.000000 0.000000 0.000000
1.017640 -0.522205 0.283178 0.000000 0.000000 0.000000
0.948424 -0.777527 0.042279 0.000000 0.000000 0.000000
0.949706 -0.701150 0.043595 0.000000 0.000000 0.000000
0.623767 -0.624818 0.097915 0.000000 0.000000 0.000000
0.166158 -0.639241 0.225904 0.000000 0.000000 0.000000
0.822340 -0.937430 0.408662 0.000000 0.000000 0.000000
1.040770 -0.993110 0.352046 0.000000 0.000000 0.000000
0.782939 -0.925323 0.405548 0.000000 0.000000 0.000000
0.889435 -0.945045 0.397047 0.000000 0.000000 0.000000
0.888474 -1.193200 0.499665 0.000000 0.000000 0.000000
1.042480 -0.963295 0.333324 0.000000 0.000000 0.000000
0.916883 -1.041310 0.485502 0.000000 0.000000 0.000000
0.812786 -0.933938 0.382811 0.000000 0.000000 0.000000
0.917438 -1.041120 0.484063 0.000000 0.000000 0.000000
1.057480 -0.533029 0.164806 0.000000 0.000000 0.000000
0.553685 -0.461508 0.268122 0.000000 0.000000 0.000000
0.323482 -0.605056 0.106474 0.000000 0.000000 0.000000
0.490160 -0.530955 0.375046 0.000000 0.000000 0.000000
1.025040 -0.525412 0.221262 0.000000 0.000000 0.000000
1.019560 -0.532557 0.181780 0.000000 0.000000 0.000000
1.006110 -0.618927 0.137570 0.000000 0.000000 0.000000
1.010470 -0.493553 0.212470 0.000000 0.000000 0.000000
0.710517 -0.595145 0.323722 0.000000 0.000000 0.000000
1.006970 -0.851216 0.203281 0.000000 0.000000 0.000000
1.012650 -0.456386 0.230281 0.000000 0.000000 0.000000
0.694984 -0.524386 0.322843 0.000000 0.000000 0.000000
1.003990 -0.494066 0.247442 0.000000 0.000000 0.000000
1.029260 -0.518935 0.219049 0.000000 0.000000 0.000000
0.768242 -0.505124 0.286190 0.000000 0.000000 0.000000
0.373621 -0.522137 0.313362 0.000000 0.000000 0.000000
0.547725 -0.465639 0.240374 0.000000 0.000000 0.000000
0.675915 -0.456663 0.290098 0.000000 0.000000 0.000000
0.169260 -0.674306 0.125226 0.000000 0.000000 0.000000
0.166355 -0.487101 0.170811 0.000000 0.000000 0.000000
0.660127 -0.455359 0.277069 0.000000 0.000000 0.000000
0.338327 -0.493844 0.165791 0.000000 0.000000 0.000000
0.304945 -0.503241 0.133149 0.000000 0.000000 0.000000
0.357311 -0.487786 0.173519 0.000000 0.000000 0.000000
0.295352 -0.499613 0.170013 0.000000 0.000000 0.000000
0.715738 -0.934022 0.519916 0.000000 0.000000 0.000000
0.703824 -0.963135 0.515132 0.000000 0.000000 0.000000
0.862677 -1.031550 0.428375 0.000000 0.000000 0.000000
0.779212 -0.913802 0.507211 0.000000 0.000000 0.000000
0.700317 -0.943841 0.519766 0.000000 0.000000 0.000000
0.724837 -0.927136 0.514989 0.000000 0.000000 0.000000
0.683761 -0.995917 0.429907 0.000000 0.000000 0.000000
0.862213 -1.035770 0.429553 0.000000 0.000000 0.000000
1.042590 -1.130350 0.338509 0.000000 0.000000 0.000000
1.042640 -1.093790 0.344237 0.000000 0.000000 0.000000
1.001690 -0.796663 0.332102 0.000000 0.000000 0.000000
1.042250 -1.023940 0.352826 0.000000 0.000000 0.000000
1.042970 -1.068500 0.348069 0.000000 0.000000 0.000000
1.020070 -1.186860 0.343635 0.000000 0.000000 0.000000
1.041300 -1.173070 0.316400 0.000000 0.000000 0.000000
0.416288 -0.534967 0.317925 0.000000 0.000000 0.000000
0.291570 -0.470575 0.319740 0.000000 0.000000 0.000000
1.008410 -0.468652 0.207276 0.000000 0.000000 0.000000
1.000600 -0.499474 0.106159 0.000000 0.000000 0.000000
1.029290 -1.418810 0.430873 0.000000 0.000000 0.000000
0.807571 -1.312790 0.502201 0.000000 0.000000 0.000000
0.804850 -1.300870 0.499665 0.000000 0.000000 0.000000
0.718291 -1.277110 0.497054 0.000000 0.000000 0.000000
0.727278 -1.263450 0.491392 0.000000 0.000000 0.000000
0.719139 -1.241000 0.490855 0.000000 0.000000 0.000000
1.028290 -1.391330 0.354197 0.000000 0.000000 0.000000
0.984800 -0.504529 -0.023860 0.000000 0.000000 0.000000
1.005140 -0.579856 0.127204 0.000000 0.000000 0.000000
0.995397 -0.488741 0.156912 0.000000 0.000000 0.000000
1.024130 -0.544248 0.130411 0.000000 0.000000 0.000000
0.169494 -0.633599 0.169175 0.000000 0.000000 0.000000
0.747598 -0.836555 0.491645 0.000000 0.000000 0.000000
0.770480 -1.061010 0.554563 0.000000 0.000000 0.000000
0.756370 -0.831850 0.495685 0.000000 0.000000 0.000000
0.701261 -0.963922 0.512789 0.000000 0.000000 0.000000
0.684587 -0.875084 0.400512 0.000000 0.000000 0.000000
0.701725 -0.943964 0.521285 0.000000 0.000000 0.000000
0.864355 -0.708640 0.459515 0.000000 0.000000 0.000000
0.786278 -0.911166 0.510688 0.000000 0.000000 0.000000
0.774756 -0.924008 0.511715 0.000000 0.000000 0.000000
0.753553 -0.823510 0.491105 0.000000 0.000000 0.000000
0.755592 -0.852077 0.499253 0.000000 0.000000 0.000000
1.039500 -1.113680 0.265130 0.000000 0.000000 0.000000
1.038880 -1.072470 0.254081 0.000000 0.000000 0.000000
0.922323 -1.838940 0.583225 0.000000 0.000000 0.000000
0.710200 -1.871000 0.686863 0.000000 0.000000 0.000000
0.731035 -1.693780 0.666662 0.000000 0.000000 0.000000
0.493386 -1.901490 0.337558 0.000000 0.000000 0.000000
0.694378 -1.660610 0.612245 0.000000 0.000000 0.000000
0.697877 -1.850400 0.614044 0.000000 0.000000 0.000000
0.701270 -1.662090 0.677822 0.000000 0.000000 0.000000
0.456375 -1.881190 0.382375 0.000000 0.000000 0.000000
0.710815 -1.888070 0.621580 0.000000 0.000000 0.000000
0.659670 -1.650540 0.638001 0.000000 0.000000 0.000000
0.357782 -1.226140 0.431812 0.000000 0.000000 0.000000
0.474752 -1.761420 0.325085 0.000000 0.000000 0.000000
0.458788 -1.937990 0.409055 0.000000 0.000000 0.000000
0.672788 -1.716280 0.560554 0.000000 0.000000 0.000000
0.668344 -1.705690 0.714633 0.000000 0.000000 0.000000
0.554985 -1.369140 0.631127 0.000000 0.000000 0.000000
0.675147 -1.702520 0.555508 0.000000 0.000000 0.000000
0.797848 -1.203950 0.479666 0.000000 0.000000 0.000000
0.839820 -1.165850 0.575696 0.000000 0.000000 0.000000
0.892423 -1.207310 0.481464 0.000000 0.000000 0.000000
0.927567 -1.011550 0.151624 0.000000 0.000000 0.000000
1.035800 -1.075230 0.260175 0.000000 0.000000 0.000000
0.964649 -1.075550 0.145109 0.000000 0.000000 0.000000
1.028940 -1.532320 0.224575 0.000000 0.000000 0.000000
1.008790 -1.434130 0.225560 0.000000 0.000000 0.000000
0.967953 -1.081860 0.109588 0.000000 0.000000 0.000000
0.928970 -1.012190 0.151792 0.000000 0.000000 0.000000
0.874147 -0.937793 0.399847 0.000000 0.000000 0.000000
0.806319 -0.894531 0.359962 0.000000 0.000000 0.000000
0.835496 -1.016860 0.549358 0.000000 0.000000 0.000000
1.035910 -1.182140 0.360025 0.000000 0.000000 0.000000
0.869813 -1.179810 0.566789 0.000000 0.000000 0.000000
0.818640 -1.190560 0.578953 0.000000 0.000000 0.000000
0.815436 -1.167820 0.577289 0.000000 0.000000 0.000000
0.823700 -1.129790 0.571911 0.000000 0.000000 0.000000
0.878009 -1.033240 0.495631 0.000000 0.000000 0.000000
0.698016 -0.951469 0.520660 0.000000 0.000000 0.000000
0.872346 -0.938101 0.399367 0.000000 0.000000 0.000000
1.040700 -1.156800 0.394254 0.000000 0.000000 0.000000
0.867565 -1.128000 0.553703 0.000000 0.000000 0.000000
0.824590 -1.128590 0.571487 0.000000 0.000000 0.000000
1.007280 -0.823084 0.241048 0.000000 0.000000 0.000000
0.940495 -0.760979 0.031562 0.000000 0.000000 0.000000
1.009480 -0.786657 0.308088 0.000000 0.000000 0.000000
1.005310 -0.541267 0.122091 0.000000 0.000000 0.000000
1.008630 -0.798352 0.273210 0.000000 0.000000 0.000000
1.011350 -0.583562 0.130473 0.000000 0.000000 0.000000
0.995908 -0.519499 0.282945 0.000000 0.000000 0.000000
0.990116 -0.519031 0.284637 0.000000 0.000000 0.000000
0.356097 -0.486321 0.182809 0.000000 0.000000 0.000000
0.372595 -0.511415 0.310619 0.000000 0.000000 0.000000
0.772304 -0.910285 0.399487 0.000000 0.000000 0.000000
0.750899 -0.823351 0.488889 0.000000 0.000000 0.000000
0.758180 -0.806796 0.492446 0.000000 0.000000 0.000000
0.683033 -0.940107 0.416561 0.000000 0.000000 0.000000
1.006140 -0.619141 0.137433 0.000000 0.000000 0.000000
1.005480 -0.738738 0.151639 0.000000 0.000000 0.000000
0.937044 -0.832204 0.373562 0.000000 0.000000 0.000000
0.773736 -0.488882 0.283419 0.000000 0.000000 0.000000
0.162249 -0.384280 0.310395 0.000000 0.000000 0.000000
0.161866 -0.490049 0.176183 0.000000 0.000000 0.000000
1.043200 -1.132050 0.269312 0.000000 0.000000 0.000000
0.917870 -0.983609 0.124746 0.000000 0.000000 0.000000
1.029550 -1.430390 0.344688 0.000000 0.000000 0.000000
1.042400 -1.191050 0.285296 0.000000 0.000000 0.000000
1.003720 -0.768986 0.201551 0.000000 0.000000 0.000000
0.226946 -0.522954 0.093524 0.000000 0.000000 0.000000
0.375337 -0.512785 0.312143 0.000000 0.000000 0.000000
1.022790 -0.530768 0.111492 0.000000 0.000000 0.000000
0.407299 -0.479067 0.227283 0.000000 0.000000 0.000000
1.008070 -0.797829 0.212554 0.000000 0.000000 0.000000
1.005290 -0.724002 0.172062 0.000000 0.000000 0.000000
0.955974 -0.786737 0.389881 0.000000 0.000000 0.000000
1.043670 -1.127470 0.352455 0.000000 0.000000 0.000000
1.040560 -1.051850 0.269418 0.000000 0.000000 0.000000
1.033250 -1.182050 0.352849 0.000000 0.000000 0.000000
0.940191 -0.799096 0.389442 0.000000 0.000000 0.000000
0.904620 -1.012620 0.414064 0.000000 0.000000 0.000000
0.904863 -1.179030 0.508046 0.000000 0.000000 0.000000
1.019480 -0.534272 0.173548 0.000000 0.000000 0.000000
0.509788 -0.456023 0.288474 0.000000 0.000000 0.000000
0.795518 -0.906373 0.400637 0.000000 0.000000 0.000000
0.777178 -0.897440 0.504934 0.000000 0.000000 0.000000
0.301100 -0.467883 0.318708 0.000000 0.000000 0.000000
0.299492 -0.476902 0.256946 0.000000 0.000000 0.000000
0.304929 -0.474306 0.257869 0.000000 0.000000 0.000000
0.461220 -0.576638 0.315049 0.000000 0.000000 0.000000
0.496465 -0.543525 0.399616 0.000000 0.000000 0.000000
0.764733 -0.505026 0.285620 0.000000 0.000000 0.000000
0.522407 -0.546686 0.339463 0.000000 0.000000 0.000000
0.513739 -0.551670 0.342915 0.000000 0.000000 0.000000
1.005940 -0.592607 0.218586 0.000000 0.000000 0.000000
0.993070 -0.504738 -0.025814 0.000000 0.000000 0.000000
0.396147 -0.474144 0.230964 0.000000 0.000000 0.000000
0.795486 -0.519856 0.313514 0.000000 0.000000 0.000000
0.475929 -0.573381 0.287510 0.000000 0.000000 0.000000
0.159412 -0.434283 0.162962 0.000000 0.000000 0.000000
1.011900 -0.537349 0.161630 0.000000 0.000000 0.000000
1.032390 -0.637768 0.275055 0.000000 0.000000 0.000000
1.030030 -0.523681 0.214905 0.000000 0.000000 0.000000
0.760685 -0.480234 0.286761 0.000000 0.000000 0.000000
0.502870 -0.541869 0.327808 0.000000 0.000000 0.000000
0.643353 -0.522696 0.312478 0.000000 0.000000 0.000000
0.984036 -0.582051 -0.007067 0.000000 0.000000 0.000000
0.361669 -0.513590 0.091915 0.000000 0.000000 0.000000
0.484593 -0.502862 0.408520 0.000000 0.000000 0.000000
0.666961 -0.460678 0.288785 0.000000 0.000000 0.000000
0.487811 -0.552717 0.310894 0.000000 0.000000 0.000000
0.195846 -0.506357 0.122497 0.000000 0.000000 0.000000
0.992772 -0.491362 0.279860 0.000000 0.000000 0.000000
0.223146 -0.525445 0.092933 0.000000 0.000000 0.000000
1.004180 -0.597301 0.130905 0.000000 0.000000 0.000000
0.975712 -0.542491 -0.028213 0.000000 0.000000 0.000000
1.015530 -0.589587 0.251264 0.000000 0.000000 0.000000
1.012440 -0.609552 0.260573 0.000000 0.000000 0.000000
1.015840 -0.645472 0.154134 0.000000 0.000000 0.000000
0.757173 -0.496082 0.293985 0.000000 0.000000 0.000000
0.995470 -0.757031 0.291469 0.000000 0.000000 0.000000
1.011370 -0.712699 0.205092 0.000000 0.000000 0.000000
0.998864 -0.734387 0.263543 0.000000 0.000000 0.000000
1.003310 -0.768724 0.201481 0.000000 0.000000 0.000000
0.985252 -0.661497 0.025290 0.000000 0.000000 0.000000
0.983529 -0.445453 0.227930 0.000000 0.000000 0.000000
1.027870 -1.385180 0.398799 0.000000 0.000000 0.000000
1.028260 -1.357530 0.377042 0.000000 0.000000 0.000000
0.910713 -0.994749 0.536008 0.000000 0.000000 0.000000
0.743408 -1.205420 0.480672 0.000000 0.000000 0.000000
0.832873 -1.207710 0.480295 0.000000 0.000000 0.000000
0.818851 -1.262120 0.491005 0.000000 0.000000 0.000000
0.725908 -1.250640 0.488585 0.000000 0.000000 0.000000
1.037860 -1.550800 0.362176 0.000000 0.000000 0.000000
0.974960 -1.568760 0.572364 0.000000 0.000000 0.000000
1.046310 -1.576610 0.510088 0.000000 0.000000 0.000000
1.030160 -1.443060 0.354637 0.000000 0.000000 0.000000
0.935436 -1.564140 0.584713 0.000000 0.000000 0.000000
0.971066 -1.567140 0.570995 0.000000 0.000000 0.000000
1.025430 -1.406120 0.371825 0.000000 0.000000 0.000000
0.497349 -0.530590 0.378898 0.000000 0.000000 0.000000
0.381795 -0.597273 0.104622 0.000000 0.000000 0.000000
0.533491 -0.590037 0.363213 0.000000 0.000000 0.000000
1.007010 -0.798659 0.214720 0.000000 0.000000 0.000000
1.013950 -0.705013 0.233885 0.000000 0.000000 0.000000
0.883613 -0.520349 -0.045984 0.000000 0.000000 0.000000
0.178814 -0.634309 0.137566 0.000000 0.000000 0.000000
0.159625 -0.645354 0.209156 0.000000 0.000000 0.000000
0.156028 -0.656245 0.272935 0.000000 0.000000 0.000000
0.166170 -0.609700 0.253204 0.000000 0.000000 0.000000
0.183662 -0.509489 0.120918 0.000000 0.000000 0.000000
0.167115 -0.657087 0.124344 0.000000 0.000000 0.000000
0.183512 -0.450301 0.380080 0.000000 0.000000 0.000000
0.158269 -0.520330 0.089474 0.000000 0.000000 0.000000
0.173468 -0.774318 0.288523 0.000000 0.000000 0.000000
0.166181 -0.643963 0.165890 0.000000 0.000000 0.000000
0.173661 -0.644355 0.152073 0.000000 0.000000 0.000000
0.161875 -0.528192 0.090704 0.000000 0.000000 0.000000
1.008420 -0.609399 0.162257 0.000000 0.000000 0.000000
1.028780 -0.570973 0.237016 0.000000 0.000000 0.000000
1.009680 -0.611630 0.163938 0.000000 0.000000 0.000000
0.878081 -1.130820 0.551662 0.000000 0.000000 0.000000
0.781351 -0.907338 0.402195 0.000000 0.000000 0.000000
0.781780 -0.892096 0.401173 0.000000 0.000000 0.000000
0.698545 -0.960517 0.516106 0.000000 0.000000 0.000000
0.801141 -0.894302 0.369640 0.000000 0.000000 0.000000
0.878516 -1.129650 0.552216 0.000000 0.000000 0.000000
0.787060 -0.923360 0.406796 0.000000 0.000000 0.000000
0.782791 -0.907560 0.402084 0.000000 0.000000 0.000000
0.830175 -1.009520 0.428034 0.000000 0.000000 0.000000
0.164251 -0.630859 0.194250 0.000000 0.000000 0.000000
0.167007 -0.630309 0.194159 0.000000 0.000000 0.000000
0.983205 -0.810478 0.048031 0.000000 0.000000 0.000000
1.005870 -0.804518 0.326969 0.000000 0.000000 0.000000
1.007040 -0.784234 0.307305 0.000000 0.000000 0.000000
1.042430 -1.087140 0.371584 0.000000 0.000000 0.000000
0.902861 -0.945132 0.401361 0.000000 0.000000 0.000000
0.914915 -0.950819 0.401022 0.000000 0.000000 0.000000
0.929845 -1.203820 0.475329 0.000000 0.000000 0.000000
1.041800 -1.006840 0.364057 0.000000 0.000000 0.000000
0.900384 -0.941633 0.340673 0.000000 0.000000 0.000000
1.036030 -0.948137 0.347048 0.000000 0.000000 0.000000
1.000550 -0.821625 0.331818 0.000000 0.000000 0.000000
0.151058 -0.376742 0.386423 0.000000 0.000000 0.000000
0.164746 -0.609177 0.259081 0.000000 0.000000 0.000000
0.162055 -0.609022 0.331682 0.000000 0.000000 0.000000
0.162509 -0.615133 0.262706 0.000000 0.000000 0.000000
0.165277 -0.605775 0.312827 0.000000 0.000000 0.000000
0.163020 -0.614857 0.263409 0.000000 0.000000 0.000000
0.984206 -0.509870 -0.021456 0.000000 0.000000 0.000000
0.224645 -0.517594 0.091423 0.000000 0.000000 0.000000
0.186746 -0.509914 0.125514 0.000000 0.000000 0.000000
0.166609 -0.601189 0.327479 0.000000 0.000000 0.000000
1.044780 -1.033150 0.338276 0.000000 0.000000 0.000000
0.912846 -1.248140 0.473974 0.000000 0.000000 0.000000
0.912924 -1.247880 0.474083 0.000000 0.000000 0.000000
1.008410 -0.961981 0.431204 0.000000 0.000000 0.000000
0.900523 -0.940135 0.352913 0.000000 0.000000 0.000000
0.170267 -0.607164 0.259749 0.000000 0.000000 0.000000
0.300109 -0.475893 0.358894 0.000000 0.000000 0.000000
1.009890 -0.571955 -0.007769 0.000000 0.000000 0.000000
0.361152 -1.485820 0.565228 0.000000 0.000000 0.000000
0.511920 -0.454761 0.289164 0.000000 0.000000 0.000000
1.028410 -1.173270 0.408861 0.000000 0.000000 0.000000
0.919685 -0.986055 0.142019 0.000000 0.000000 0.000000
1.028950 -1.367970 0.324593 0.000000 0.000000 0.000000
1.039830 -1.099390 0.260184 0.000000 0.000000 0.000000
1.006830 -0.822912 0.240789 0.000000 0.000000 0.000000
1.019920 -1.210680 0.283604 0.000000 0.000000 0.000000
0.957751 -1.070040 0.145446 0.000000 0.000000 0.000000
1.007960 -0.841272 0.288294 0.000000 0.000000 0.000000
1.029210 -1.368860 0.320134 0.000000 0.000000 0.000000
1.018990 -1.213890 0.282845 0.000000 0.000000 0.000000
0.314497 -0.604274 0.108921 0.000000 0.000000 0.000000
1.008380 -0.842434 0.288119 0.000000 0.000000 0.000000
0.947805 -0.777288 0.042568 0.000000 0.000000 0.000000
0.974356 -1.093820 0.109519 0.000000 0.000000 0.000000
1.045930 -1.608750 0.379774 0.000000 0.000000 0.000000
1.010320 -1.187870 0.137534 0.000000 0.000000 0.000000
0.713770 -1.017580 0.546317 0.000000 0.000000 0.000000
0.697983 -1.002100 0.541120 0.000000 0.000000 0.000000
0.909220 -0.814674 0.398553 0.000000 0.000000 0.000000
0.836611 -0.887566 0.387040 0.000000 0.000000 0.000000
0.686735 -0.803112 0.461065 0.000000 0.000000 0.000000
0.688725 -1.008440 0.434559 0.000000 0.000000 0.000000
0.775283 -0.923323 0.512324 0.000000 0.000000 0.000000
0.754201 -0.856819 0.499956 0.000000 0.000000 0.000000
1.040710 -1.159390 0.400839 0.000000 0.000000 0.000000
0.830247 -1.287200 0.473219 0.000000 0.000000 0.000000
0.818315 -1.258960 0.488797 0.000000 0.000000 0.000000
0.806712 -1.106480 0.564124 0.000000 0.000000 0.000000
1.026740 -1.363320 0.350006 0.000000 0.000000 0.000000
0.964283 -1.410870 0.543842 0.000000 0.000000 0.000000
1.050380 -1.080990 0.405480 0.000000 0.000000 0.000000
1.029460 -1.385730 0.368103 0.000000 0.000000 0.000000
1.026430 -1.384160 0.403325 0.000000 0.000000 0.000000
0.966865 -1.412040 0.543573 0.000000 0.000000 0.000000
1.027320 -1.383710 0.401204 0.000000 0.000000 0.000000
0.809030 -1.285990 0.495078 0.000000 0.000000 0.000000
1.032520 -1.186780 0.347198 0.000000 0.000000 0.000000
1.047610 -1.121720 0.403042 0.000000 0.000000 0.000000
1.011560 -0.545505 0.118922 0.000000 0.000000 0.000000
1.012960 -0.550979 0.120298 0.000000 0.000000 0.000000
0.681094 -0.993425 0.535204 0.000000 0.000000 0.000000
0.840283 -1.030940 0.446443 0.000000 0.000000 0.000000
0.773621 -0.922538 0.510680 0.000000 0.000000 0.000000
0.885557 -1.056080 0.390919 0.000000 0.000000 0.000000
0.967767 -0.629096 0.429275 0.000000 0.000000 0.000000
0.169099 -0.612224 0.239542 0.000000 0.000000 0.000000
0.916208 -1.044000 0.395806 0.000000 0.000000 0.000000
0.761930 -0.886303 0.502300 0.000000 0.000000 0.000000
0.828616 -1.010730 0.429056 0.000000 0.000000 0.000000
0.904661 -1.026550 0.402548 0.000000 0.000000 0.000000
1.041810 -1.020570 0.367203 0.000000 0.000000 0.000000
0.860263 -1.006310 0.428427 0.000000 0.000000 0.000000
0.861840 -1.034700 0.429061 0.000000 0.000000 0.000000
0.755421 -0.822072 0.492292 0.000000 0.000000 0.000000
0.755991 -0.808145 0.491187 0.000000 0.000000 0.000000
0.902334 -1.013240 0.408241 0.000000 0.000000 0.000000
0.773949 -0.799730 0.482144 0.000000 0.000000 0.000000
1.014330 -0.735103 0.151452 0.000000 0.000000 0.000000
0.165698 -0.605969 0.293075 0.000000 0.000000 0.000000
0.680344 -0.863465 0.510451 0.000000 0.000000 0.000000
0.682852 -0.859172 0.510340 0.000000 0.000000 0.000000
0.677197 -0.883945 0.512430 0.000000 0.000000 0.000000
0.725405 -0.926928 0.514789 0.000000 0.000000 0.000000
0.755729 -0.871715 0.503403 0.000000 0.000000 0.000000
0.695330 -0.860478 0.391780 0.000000 0.000000 0.000000
0.762371 -1.051900 0.554117 0.000000 0.000000 0.000000
0.782425 -0.892754 0.399040 0.000000 0.000000 0.000000
0.828355 -1.009500 0.427997 0.000000 0.000000 0.000000
0.758424 -0.809405 0.486306 0.000000 0.000000 0.000000
0.776666 -0.916555 0.405675 0.000000 0.000000 0.000000
0.699202 -0.959984 0.516482 0.000000 0.000000 0.000000
0.695551 -0.950166 0.517669 0.000000 0.000000 0.000000
0.495391 -0.530298 0.377898 0.000000 0.000000 0.000000
0.345413 -0.513219 0.334273 0.000000 0.000000 0.000000
1.013470 -0.619800 0.137194 0.000000 0.000000 0.000000
1.005370 -0.601909 0.144387 0.000000 0.000000 0.000000
0.842447 -0.558031 0.286881 0.000000 0.000000 0.000000
0.970150 -0.559113 0.130814 0.000000 0.000000 0.000000
1.026020 -0.602401 0.208101 0.000000 0.000000 0.000000
0.692077 -1.000160 0.443656 0.000000 0.000000 0.000000
0.888622 -1.001690 0.417900 0.000000 0.000000 0.000000
0.706952 -0.966243 0.521685 0.000000 0.000000 0.000000
0.695917 -0.964009 0.512489 0.000000 0.000000 0.000000
0.780073 -0.909819 0.400791 0.000000 0.000000 0.000000
0.948373 -0.808645 0.325137 0.000000 0.000000 0.000000
0.374432 -0.508889 0.310314 0.000000 0.000000 0.000000
0.999207 -0.822459 0.331619 0.000000 0.000000 0.000000
1.007190 -0.490487 0.147333 0.000000 0.000000 0.000000
0.369203 -0.465067 0.314816 0.000000 0.000000 0.000000
0.354314 -0.482519 0.209329 0.000000 0.000000 0.000000
1.017260 -0.493948 0.212386 0.000000 0.000000 0.000000
1.008500 -0.479058 0.191280 0.000000 0.000000 0.000000
0.356204 -0.482743 0.197072 0.000000 0.000000 0.000000
0.360132 -0.479545 0.207013 0.000000 0.000000 0.000000
0.276750 -0.505976 0.176588 0.000000 0.000000 0.000000
0.592121 -0.454192 0.236045 0.000000 0.000000 0.000000
0.377776 -0.462700 0.301192 0.000000 0.000000 0.000000
0.164972 -0.626023 0.265925 0.000000 0.000000 0.000000
0.162685 -0.489055 0.180353 0.000000 0.000000 0.000000
0.165389 -0.608899 0.273493 0.000000 0.000000 0.000000
0.867104 -1.018120 0.426359 0.000000 0.000000 0.000000
0.928373 -1.018540 0.537856 0.000000 0.000000 0.000000
0.815887 -1.281390 0.494036 0.000000 0.000000 0.000000
0.849188 -1.260500 0.478660 0.000000 0.000000 0.000000
1.013990 -1.312780 0.428779 0.000000 0.000000 0.000000
0.843362 -1.317430 0.495410 0.000000 0.000000 0.000000
0.301846 -0.471361 0.281196 0.000000 0.000000 0.000000
0.306175 -0.468785 0.321028 0.000000 0.000000 0.000000
0.299385 -0.489118 0.214230 0.000000 0.000000 0.000000
1.011410 -0.467869 0.207948 0.000000 0.000000 0.000000
1.005760 -0.780042 0.322155 0.000000 0.000000 0.000000
1.022500 -0.667226 0.281313 0.000000 0.000000 0.000000
1.017530 -0.649799 0.276792 0.000000 0.000000 0.000000
0.297799 -0.465521 0.356508 0.000000 0.000000 0.000000
0.292377 -0.457391 0.373360 0.000000 0.000000 0.000000
1.042140 -1.065410 0.359778 0.000000 0.000000 0.000000
0.903778 -1.150670 0.547704 0.000000 0.000000 0.000000
1.027340 -1.194440 0.331037 0.000000 0.000000 0.000000
1.033080 -1.183630 0.360051 0.000000 0.000000 0.000000
1.027140 -1.350740 0.402693 0.000000 0.000000 0.000000
1.041560 -1.053330 0.346569 0.000000 0.000000 0.000000
1.027090 -1.349350 0.409458 0.000000 0.000000 0.000000
0.374996 -0.471852 0.312033 0.000000 0.000000 0.000000
0.155333 -0.461314 0.118515 0.000000 0.000000 0.000000
0.296348 -0.481772 0.244413 0.000000 0.000000 0.000000
0.865239 -1.207450 0.485788 0.000000 0.000000 0.000000
0.970031 -1.245620 0.456381 0.000000 0.000000 0.000000
0.916407 -1.062160 0.413590 0.000000 0.000000 0.000000
0.871632 -1.204980 0.489431 0.000000 0.000000 0.000000
1.005380 -0.923174 0.336711 0.000000 0.000000 0.000000
0.786317 -0.990075 0.539242 0.000000 0.000000 0.000000
0.820027 -1.246210 0.482937 0.000000 0.000000 0.000000
0.401706 -0.473745 0.231206 0.000000 0.000000 0.000000
0.297129 -0.515677 0.093369 0.000000 0.000000 0.000000
0.477728 -0.452954 0.283156 0.000000 0.000000 0.000000
1.007570 -0.469818 0.216414 0.000000 0.000000 0.000000
0.998068 -0.492415 0.277577 0.000000 0.000000 0.000000
1.005810 -0.495906 0.213036 0.000000 0.000000 0.000000
0.376426 -0.463132 0.301302 0.000000 0.000000 0.000000
1.011350 -0.967128 0.212116 0.000000 0.000000 0.000000
1.038660 -0.603727 0.213119 0.000000 0.000000 0.000000
1.010710 -0.967306 0.211948 0.000000 0.000000 0.000000
1.013970 -0.879092 0.246067 0.000000 0.000000 0.000000
1.011420 -0.967408 0.212257 0.000000 0.000000 0.000000
1.014380 -0.969090 0.212280 0.000000 0.000000 0.000000
0.996891 -0.680797 0.150460 0.000000 0.000000 0.000000
1.007770 -0.824836 0.241724 0.000000 0.000000 0.000000
1.008020 -0.724173 0.260995 0.000000 0.000000 0.000000
1.006710 -0.717907 0.162838 0.000000 0.000000 0.000000
1.007500 -0.496844 0.104021 0.000000 0.000000 0.000000
1.013040 -0.587315 0.262508 0.000000 0.000000 0.000000
1.032270 -1.490790 0.414738 0.000000 0.000000 0.000000
0.922046 -1.174030 0.476929 0.000000 0.000000 0.000000
1.030290 -1.549000 0.603649 0.000000 0.000000 0.000000
0.765359 -1.209900 0.554006 0.000000 0.000000 0.000000
0.717771 -1.236530 0.495409 0.000000 0.000000 0.000000
1.031480 -1.467180 0.403887 0.000000 0.000000 0.000000
1.024760 -1.546020 0.600133 0.000000 0.000000 0.000000
1.032800 -1.516510 0.500075 0.000000 0.000000 0.000000
0.181817 -0.512685 0.139510 0.000000 0.000000 0.000000
0.153169 -0.662665 0.264434 0.000000 0.000000 0.000000
0.165675 -0.616163 0.277360 0.000000 0.000000 0.000000
1.005780 -0.716727 0.162608 0.000000 0.000000 0.000000
0.731704 -1.375750 0.537497 0.000000 0.000000 0.000000
0.978028 -1.435090 0.533026 0.000000 0.000000 0.000000
0.956488 -1.410740 0.541351 0.000000 0.000000 0.000000
0.986843 -1.430100 0.509607 0.000000 0.000000 0.000000
0.828171 -1.294530 0.475934 0.000000 0.000000 0.000000
0.817170 -1.261820 0.490189 0.000000 0.000000 0.000000
0.859200 -1.261250 0.484722 0.000000 0.000000 0.000000
0.975573 -1.434260 0.532316 0.000000 0.000000 0.000000
0.731872 -1.376510 0.538216 0.000000 0.000000 0.000000
1.030330 -0.564421 0.203589 0.000000 0.000000 0.000000
1.008560 -0.766430 0.167391 0.000000 0.000000 0.000000
0.995643 -0.757577 0.291718 0.000000 0.000000 0.000000
1.022490 -0.607383 0.265920 0.000000 0.000000 0.000000
0.719635 -0.542962 0.306658 0.000000 0.000000 0.000000
0.718795 -0.543005 0.306145 0.000000 0.000000 0.000000
1.022830 -0.715814 0.306774 0.000000 0.000000 0.000000
0.696383 -0.580068 0.289705 0.000000 0.000000 0.000000
1.007650 -0.875081 0.247799 0.000000 0.000000 0.000000
0.992361 -0.829258 0.049170 0.000000 0.000000 0.000000
0.960944 -0.797195 0.043074 0.000000 0.000000 0.000000
0.302606 -0.473440 0.340964 0.000000 0.000000 0.000000
0.696508 -0.469711 0.299619 0.000000 0.000000 0.000000
0.154242 -0.468279 0.113423 0.000000 0.000000 0.000000
0.359947 -0.512875 0.338925 0.000000 0.000000 0.000000
0.998532 -0.595731 0.011029 0.000000 0.000000 0.000000
1.006780 -0.619014 0.137914 0.000000 0.000000 0.000000
0.985844 -0.546394 0.120831 0.000000 0.000000 0.000000
1.016520 -0.589823 0.217533 0.000000 0.000000 0.000000
1.049690 -1.163930 0.401001 0.000000 0.000000 0.000000
1.026780 -1.180970 0.372417 0.000000 0.000000 0.000000
1.042500 -1.161810 0.358565 0.000000 0.000000 0.000000
1.042340 -1.081470 0.376111 0.000000 0.000000 0.000000
0.984153 -0.829067 0.052748 0.000000 0.000000 0.000000
1.008400 -0.834033 0.244515 0.000000 0.000000 0.000000
1.022200 -0.974138 0.230508 0.000000 0.000000 0.000000
1.042450 -1.034550 0.335606 0.000000 0.000000 0.000000
0.876971 -1.032410 0.495659 0.000000 0.000000 0.000000
0.817470 -1.262800 0.491091 0.000000 0.000000 0.000000
0.876707 -1.995360 0.332989 0.000000 0.000000 0.000000
0.816332 -1.261080 0.489939 0.000000 0.000000 0.000000
0.873815 -1.986600 0.331731 0.000000 0.000000 0.000000
0.897712 -1.651250 0.519136 0.000000 0.000000 0.000000
0.831258 -1.200460 0.485791 0.000000 0.000000 0.000000
1.074260 -1.787450 0.546691 0.000000 0.000000 0.000000
0.976801 -1.949050 0.474727 0.000000 0.000000 0.000000
0.927450 -1.646230 0.521664 0.000000 0.000000 0.000000
0.879256 -1.207440 0.484253 0.000000 0.000000 0.000000
0.974878 -0.712305 0.283819 0.000000 0.000000 0.000000
0.390224 -0.537848 0.317211 0.000000 0.000000 0.000000
0.900087 -0.704213 0.072130 0.000000 0.000000 0.000000
1.039240 -0.732909 0.152088 0.000000 0.000000 0.000000
0.955395 -0.751846 0.067521 0.000000 0.000000 0.000000
0.496195 -0.613189 0.281176 0.000000 0.000000 0.000000
0.960300 -0.709070 0.279994 0.000000 0.000000 0.000000
0.500520 -0.541475 0.330325 0.000000 0.000000 0.000000
0.893820 -0.705428 0.071401 0.000000 0.000000 0.000000
1.023470 -0.730922 0.152561 0.000000 0.000000 0.000000
0.771775 -0.478262 0.279407 0.000000 0.000000 0.000000
0.774998 -0.459814 0.273458 0.000000 0.000000 0.000000
0.602756 -0.491807 0.304585 0.000000 0.000000 0.000000
0.307774 -0.484847 0.218161 0.000000 0.000000 0.000000
1.013760 -0.542649 0.140121 0.000000 0.000000 0.000000
0.962401 -0.476180 0.039680 0.000000 0.000000 0.000000
0.355078 -0.489073 0.172931 0.000000 0.000000 0.000000
0.322852 -0.478673 0.219426 0.000000 0.000000 0.000000
1.023250 -0.649434 0.277062 0.000000 0.000000 0.000000
1.021990 -0.628910 0.209623 0.000000 0.000000 0.000000
1.035580 -0.611430 0.237149 0.000000 0.000000 0.000000
0.468181 -0.568705 0.365730 0.000000 0.000000 0.000000
0.175212 -0.640206 0.151257 0.000000 0.000000 0.000000
0.157656 -0.518284 0.090105 0.000000 0.000000 0.000000
0.172140 -0.778608 0.280724 0.000000 0.000000 0.000000
0.168688 -0.671901 0.124536 0.000000 0.000000 0.000000
1.005920 -0.798869 0.272947 0.000000 0.000000 0.000000
1.005330 -0.804189 0.327152 0.000000 0.000000 0.000000
1.023300 -0.599724 0.140964 0.000000 0.000000 0.000000
1.014720 -0.704827 0.234691 0.000000 0.000000 0.000000
1.006690 -0.799193 0.272991 0.000000 0.000000 0.000000
0.999209 -0.822321 0.216358 0.000000 0.000000 0.000000
1.014580 -0.599977 0.212806 0.000000 0.000000 0.000000
1.024460 -0.610535 0.217695 0.000000 0.000000 0.000000
1.017140 -0.969082 0.231460 0.000000 0.000000 0.000000
1.008200 -0.576833 0.128153 0.000000 0.000000 0.000000
1.024400 -0.973270 0.232701 0.000000 0.000000 0.000000
1.009470 -0.575929 0.128623 0.000000 0.000000 0.000000
0.156869 -0.683114 0.280885 0.000000 0.000000 0.000000
0.150101 -0.636594 0.327247 0.000000 0.000000 0.000000
0.180927 -0.446431 0.381456 0.000000 0.000000 0.000000
0.160114 -0.386721 0.310647 0.000000 0.000000 0.000000
0.666246 -0.459528 0.285405 0.000000 0.000000 0.000000
0.800176 -0.518916 0.314090 0.000000 0.000000 0.000000
1.020810 -0.502088 0.157863 0.000000 0.000000 0.000000
0.666677 -0.460416 0.295351 0.000000 0.000000 0.000000
1.021440 -0.526826 0.201330 0.000000 0.000000 0.000000
0.349928 -0.461230 0.292962 0.000000 0.000000 0.000000
1.026440 -0.527041 0.195786 0.000000 0.000000 0.000000
0.426250 -0.470908 0.229587 0.000000 0.000000 0.000000
0.637163 -1.858420 0.686072 0.000000 0.000000 0.000000
0.510432 -1.874550 0.336506 0.000000 0.000000 0.000000
0.360609 -1.253700 0.310839 0.000000 0.000000 0.000000
0.400403 -1.882400 0.432001 0.000000 0.000000 0.000000
0.393920 -1.228800 0.447525 0.000000 0.000000 0.000000
0.299273 -1.878360 0.489181 0.000000 0.000000 0.000000
0.357426 -1.252230 0.314430 0.000000 0.000000 0.000000
0.282738 -1.800060 0.415013 0.000000 0.000000 0.000000
0.411055 -1.555860 0.558150 0.000000 0.000000 0.000000
0.415142 -1.571510 0.555284 0.000000 0.000000 0.000000
1.029240 -1.467050 0.403371 0.000000 0.000000 0.000000
0.982427 -1.430760 0.507209 0.000000 0.000000 0.000000
0.971450 -1.430150 0.506595 0.000000 0.000000 0.000000
0.809807 -1.273870 0.499434 0.000000 0.000000 0.000000
0.725421 -1.335020 0.517186 0.000000 0.000000 0.000000
1.034490 -1.509130 0.399333 0.000000 0.000000 0.000000
0.186989 -0.458989 0.318523 0.000000 0.000000 0.000000
0.190798 -0.459630 0.320904 0.000000 0.000000 0.000000
0.160881 -0.413064 0.215814 0.000000 0.000000 0.000000
0.165598 -0.609194 0.273536 0.000000 0.000000 0.000000
0.761473 -0.810041 0.486502 0.000000 0.000000 0.000000
0.907259 -0.960061 0.414115 0.000000 0.000000 0.000000
0.685985 -0.823996 0.389973 0.000000 0.000000 0.000000
1.041690 -1.099010 0.386973 0.000000 0.000000 0.000000
0.703266 -0.964688 0.515627 0.000000 0.000000 0.000000
0.715003 -0.934056 0.518884 0.000000 0.000000 0.000000
0.980255 -1.273920 0.447394 0.000000 0.000000 0.000000
1.036810 -1.182860 0.360670 0.000000 0.000000 0.000000
1.042810 -1.082330 0.376757 0.000000 0.000000 0.000000
1.028000 -1.401440 0.411580 0.000000 0.000000 0.000000
0.174755 -0.519589 0.090617 0.000000 0.000000 0.000000
0.181545 -0.631647 0.147599 0.000000 0.000000 0.000000
0.195427 -0.507804 0.123647 0.000000 0.000000 0.000000
0.166108 -0.644058 0.166459 0.000000 0.000000 0.000000
1.001740 -0.490075 0.092778 0.000000 0.000000 0.000000
0.463876 -0.558740 0.367462 0.000000 0.000000 0.000000
0.496011 -0.537402 0.391716 0.000000 0.000000 0.000000
0.522424 -0.538369 0.334161 0.000000 0.000000 0.000000
1.011940 -0.708772 0.243647 0.000000 0.000000 0.000000
0.999873 -0.608924 0.263192 0.000000 0.000000 0.000000
0.917404 -0.706105 0.063799 0.000000 0.000000 0.000000
0.895469 -0.576131 0.298823 0.000000 0.000000 0.000000
0.997925 -0.863323 0.320497 0.000000 0.000000 0.000000
1.038980 -1.174570 0.308862 0.000000 0.000000 0.000000
0.911154 -1.247380 0.474262 0.000000 0.000000 0.000000
0.898149 -1.066180 0.403544 0.000000 0.000000 0.000000
0.682593 -0.803361 0.494399 0.000000 0.000000 0.000000
0.667846 -0.910149 0.403614 0.000000 0.000000 0.000000
0.699121 -0.944768 0.519677 0.000000 0.000000 0.000000
0.692529 -0.820708 0.391345 0.000000 0.000000 0.000000
0.900008 -1.013100 0.413380 0.000000 0.000000 0.000000
0.806594 -0.904373 0.403621 0.000000 0.000000 0.000000
0.715885 -0.971592 0.527556 0.000000 0.000000 0.000000
0.875938 -0.944700 0.409264 0.000000 0.000000 0.000000
0.873375 -0.945893 0.406970 0.000000 0.000000 0.000000
0.158632 -0.418916 0.320825 0.000000 0.000000 0.000000
0.253815 -0.505713 0.132611 0.000000 0.000000 0.000000
0.162574 -0.489621 0.165024 0.000000 0.000000 0.000000
0.900022 -0.905848 0.339024 0.000000 0.000000 0.000000
1.007930 -0.830169 0.183218 0.000000 0.000000 0.000000
0.901821 -0.906140 0.339499 0.000000 0.000000 0.000000
1.013450 -0.575615 0.127801 0.000000 0.000000 0.000000
0.196307 -0.507351 0.122812 0.000000 0.000000 0.000000
0.225652 -0.524415 0.094530 0.000000 0.000000 0.000000
0.204443 -0.526511 0.091879 0.000000 0.000000 0.000000
0.155603 -0.649436 0.213999 0.000000 0.000000 0.000000
0.174899 -0.466728 0.308194 0.000000 0.000000 0.000000
0.160577 -0.399720 0.268125 0.000000 0.000000 0.000000
0.254327 -0.505605 0.132573 0.000000 0.000000 0.000000
0.174933 -0.513280 0.104831 0.000000 0.000000 0.000000
0.169605 -0.496242 0.198993 0.000000 0.000000 0.000000
0.316673 -0.493619 0.367221 0.000000 0.000000 0.000000
0.307829 -0.495438 0.364078 0.000000 0.000000 0.000000
0.349283 -0.481874 0.208788 0.000000 0.000000 0.000000
0.350111 -0.461049 0.292827 0.000000 0.000000 0.000000
