-0.336360 -0.351196 -0.035181 0.000000 0.000000 0.000000
-0.256236 -0.216491 0.144497 0.000000 0.000000 0.000000
-0.253886 -0.037814 0.307260 0.000000 0.000000 0.000000
-0.715535 0.196151 -0.100137 0.000000 0.000000 0.000000
-0.273792 -0.446267 0.056937 0.000000 0.000000 0.000000
-0.268181 -0.466639 0.235421 0.000000 0.000000 0.000000
-0.321884 0.035981 0.180184 0.000000 0.000000 0.000000
-0.302003 0.196305 -0.088549 0.000000 0.000000 0.000000
-0.684249 0.167939 0.244422 0.000000 0.000000 0.000000
-0.307770 0.153861 -0.138794 0.000000 0.000000 0.000000
-0.276503 0.056630 0.081764 0.000000 0.000000 0.000000
-0.606735 0.242076 0.071401 0.000000 0.000000 0.000000
-0.509185 0.226964 -0.004534 0.000000 0.000000 0.000000
-0.278006 -0.329096 0.068643 0.000000 0.000000 0.000000
-0.281356 -0.364641 0.013388 0.000000 0.000000 0.000000
-0.281353 -0.207237 0.021166 0.000000 0.000000 0.000000
-0.281894 -0.336516 0.040820 0.000000 0.000000 0.000000
-0.277976 -0.289876 0.050249 0.000000 0.000000 0.000000
-0.350848 -0.273355 -0.039358 0.000000 0.000000 0.000000
-0.303787 -0.204569 0.004107 0.000000 0.000000 0.000000
-0.298624 -0.331566 -0.021268 0.000000 0.000000 0.000000
-0.294925 -0.239846 0.005624 0.000000 0.000000 0.000000
-0.298944 -0.084705 -0.078004 0.000000 0.000000 0.000000
-0.431842 0.250960 0.081967 0.000000 0.000000 0.000000
-0.277647 0.054543 0.084265 0.000000 0.000000 0.000000
-0.297450 0.070839 -0.101580 0.000000 0.000000 0.000000
-0.344569 -0.225016 0.116596 0.000000 0.000000 0.000000
-0.280497 -0.320857 0.018049 0.000000 0.000000 0.000000
-0.283200 -0.361007 -0.008203 0.000000 0.000000 0.000000
-0.269946 -0.440988 0.112550 0.000000 0.000000 0.000000
-0.288048 -0.360355 -0.008243 0.000000 0.000000 0.000000
-0.254847 -0.493737 0.272046 0.000000 0.000000 0.000000
-0.258444 -0.213653 0.184012 0.000000 0.000000 0.000000
-0.334267 -0.226250 0.189463 0.000000 0.000000 0.000000
-0.273429 -0.372611 0.229057 0.000000 0.000000 0.000000
-0.272512 -0.402788 0.167401 0.000000 0.000000 0.000000
-0.272720 -0.397086 0.107587 0.000000 0.000000 0.000000
-0.274993 -0.368367 0.162927 0.000000 0.000000 0.000000
-0.298178 -0.051416 -0.090746 0.000000 0.000000 0.000000
-0.277520 -0.314395 0.191542 0.000000 0.000000 0.000000
-0.264335 -0.488377 0.165178 0.000000 0.000000 0.000000
-0.274380 -0.389780 0.080565 0.000000 0.000000 0.000000
-0.270296 -0.421851 0.212446 0.000000 0.000000 0.000000
-0.196230 -1.245760 0.426388 0.000000 0.000000 0.000000
-0.350355 -1.067730 0.569815 0.000000 0.000000 0.000000
-0.295574 -0.166856 -0.036672 0.000000 0.000000 0.000000
-0.292462 -1.201600 0.561723 0.000000 0.000000 0.000000
-0.288559 -1.204470 0.562032 0.000000 0.000000 0.000000
-0.455167 -1.989520 0.468317 0.000000 0.000000 0.000000
-0.279517 -2.007570 0.426682 0.000000 0.000000 0.000000
-0.515788 -1.857140 0.651230 0.000000 0.000000 0.000000
-0.186132 -1.981570 0.416982 0.000000 0.000000 0.000000
-0.447077 -2.016730 0.385852 0.000000 0.000000 0.000000
-0.125275 -2.025360 0.549057 0.000000 0.000000 0.000000
-0.470710 -1.990420 0.580312 0.000000 0.000000 0.000000
-0.315463 -0.189090 0.278965 0.000000 0.000000 0.000000
-0.346066 -0.183297 0.224432 0.000000 0.000000 0.000000
-0.327511 -0.206215 0.264982 0.000000 0.000000 0.000000
-0.242925 -0.019612 0.306367 0.000000 0.000000 0.000000
-0.346951 -0.173374 0.192613 0.000000 0.000000 0.000000
-0.357804 -0.922376 0.409730 0.000000 0.000000 0.000000
-0.341397 -0.470995 0.369474 0.000000 0.000000 0.000000
-0.259149 -0.488684 0.264132 0.000000 0.000000 0.000000
-0.344443 -0.454709 0.364239 0.000000 0.000000 0.000000
-0.260466 -0.495886 0.274808 0.000000 0.000000 0.000000
-0.260324 -0.491198 0.297594 0.000000 0.000000 0.000000
-0.267785 0.040888 0.049794 0.000000 0.000000 0.000000
-0.299874 0.062521 -0.055500 0.000000 0.000000 0.000000
-0.348269 0.187909 0.255658 0.000000 0.000000 0.000000
-0.438115 0.242649 0.052157 0.000000 0.000000 0.000000
-0.295410 0.086283 0.155542 0.000000 0.000000 0.000000
-0.285251 0.092808 0.153229 0.000000 0.000000 0.000000
-0.425194 0.223874 0.189890 0.000000 0.000000 0.000000
-0.296009 -0.126522 -0.054955 0.000000 0.000000 0.000000
-0.545029 0.230787 0.012747 0.000000 0.000000 0.000000
-0.296971 0.092276 -0.121728 0.000000 0.000000 0.000000
-0.546902 0.139832 0.139801 0.000000 0.000000 0.000000
-0.333637 0.043140 0.201227 0.000000 0.000000 0.000000
-0.359409 0.194758 -0.144805 0.000000 0.000000 0.000000
-0.287711 0.051590 0.246584 0.000000 0.000000 0.000000
-0.277694 -0.310335 0.073601 0.000000 0.000000 0.000000
-0.279911 -0.314717 0.041971 0.000000 0.000000 0.000000
-0.332669 -0.305335 0.377715 0.000000 0.000000 0.000000
-0.340980 -0.211781 0.354288 0.000000 0.000000 0.000000
-0.296440 -0.332023 0.349624 0.000000 0.000000 0.000000
-0.275202 -0.322929 0.341303 0.000000 0.000000 0.000000
-0.326470 -0.205778 0.264371 0.000000 0.000000 0.000000
-0.346305 -0.191021 0.212566 0.000000 0.000000 0.000000
-0.357568 -0.412419 0.352331 0.000000 0.000000 0.000000
-0.334643 -0.284538 0.372637 0.000000 0.000000 0.000000
-0.268469 -0.437214 0.277305 0.000000 0.000000 0.000000
-0.336690 -0.323304 0.298897 0.000000 0.000000 0.000000
-0.259680 -0.487962 0.295325 0.000000 0.000000 0.000000
-0.269332 -0.437045 0.277536 0.000000 0.000000 0.000000
-0.343361 -0.175866 0.234762 0.000000 0.000000 0.000000
-0.330195 -0.200996 0.250881 0.000000 0.000000 0.000000
-0.342322 -0.281486 0.327799 0.000000 0.000000 0.000000
-0.329235 -0.317965 0.381034 0.000000 0.000000 0.000000
-0.353554 -0.901210 0.447491 0.000000 0.000000 0.000000
-0.310052 -1.165160 0.587772 0.000000 0.000000 0.000000
-0.255780 -0.860966 0.523008 0.000000 0.000000 0.000000
-0.544336 0.239944 0.046316 0.000000 0.000000 0.000000
-0.561354 0.230116 0.005126 0.000000 0.000000 0.000000
-0.530986 0.218440 -0.038164 0.000000 0.000000 0.000000
-0.282460 0.078255 0.100671 0.000000 0.000000 0.000000
-0.274405 0.052677 -0.025953 0.000000 0.000000 0.000000
-0.333294 0.041235 0.205554 0.000000 0.000000 0.000000
-0.268600 0.091156 0.155768 0.000000 0.000000 0.000000
-0.413352 0.221301 0.224026 0.000000 0.000000 0.000000
-0.315599 0.189036 -0.148829 0.000000 0.000000 0.000000
-0.180140 -1.132890 0.241021 0.000000 0.000000 0.000000
-0.263726 -0.478674 0.359206 0.000000 0.000000 0.000000
-0.329162 -0.200289 0.251208 0.000000 0.000000 0.000000
-0.269606 -0.444991 0.196017 0.000000 0.000000 0.000000
-0.265582 -0.477126 0.192569 0.000000 0.000000 0.000000
-0.344292 -0.208780 0.082825 0.000000 0.000000 0.000000
-0.363312 -0.333559 -0.051343 0.000000 0.000000 0.000000
-0.534517 0.239558 0.048616 0.000000 0.000000 0.000000
-0.277493 0.056439 0.080831 0.000000 0.000000 0.000000
-0.345297 0.187954 0.214930 0.000000 0.000000 0.000000
-0.239723 -0.137682 -0.000421 0.000000 0.000000 0.000000
-0.204336 -1.286380 0.279162 0.000000 0.000000 0.000000
-0.189438 -1.285130 0.285130 0.000000 0.000000 0.000000
-0.327150 -0.284636 0.230697 0.000000 0.000000 0.000000
-0.278917 -0.305688 0.189566 0.000000 0.000000 0.000000
-0.277677 -0.330674 0.069218 0.000000 0.000000 0.000000
-0.335779 -0.310125 0.271751 0.000000 0.000000 0.000000
-0.415857 0.219989 0.216157 0.000000 0.000000 0.000000
-0.261714 0.059826 0.249162 0.000000 0.000000 0.000000
-0.317410 0.039077 0.202349 0.000000 0.000000 0.000000
-0.298844 -0.094471 -0.070236 0.000000 0.000000 0.000000
-0.650418 -2.007110 0.465196 0.000000 0.000000 0.000000
-0.677423 -1.980020 0.653347 0.000000 0.000000 0.000000
-0.489473 -1.992770 0.527166 0.000000 0.000000 0.000000
-0.569378 -2.013800 0.543424 0.000000 0.000000 0.000000
-0.898413 -1.791050 0.727582 0.000000 0.000000 0.000000
-0.409647 -1.998230 0.632355 0.000000 0.000000 0.000000
-0.897820 -2.088420 0.506787 0.000000 0.000000 0.000000
-0.579931 -1.966840 0.649026 0.000000 0.000000 0.000000
-0.778552 -1.744290 0.604741 0.000000 0.000000 0.000000
-0.342541 -0.240210 0.143630 0.000000 0.000000 0.000000
-0.268230 -0.453640 0.238133 0.000000 0.000000 0.000000
-0.265664 -0.472094 0.210010 0.000000 0.000000 0.000000
-0.266586 -0.466481 0.234866 0.000000 0.000000 0.000000
-0.344216 0.188728 0.158604 0.000000 0.000000 0.000000
-0.346826 -0.903849 0.460153 0.000000 0.000000 0.000000
-0.354565 -0.900891 0.447781 0.000000 0.000000 0.000000
-0.348318 -1.081790 0.460130 0.000000 0.000000 0.000000
-0.351701 -1.065200 0.466479 0.000000 0.000000 0.000000
-0.356889 -1.017900 0.448532 0.000000 0.000000 0.000000
-0.351041 -1.060320 0.447848 0.000000 0.000000 0.000000
-0.594988 0.138564 0.143039 0.000000 0.000000 0.000000
-0.254521 0.009820 -0.033586 0.000000 0.000000 0.000000
-0.332671 0.226188 0.107061 0.000000 0.000000 0.000000
-0.411192 0.244310 0.060989 0.000000 0.000000 0.000000
-0.335205 0.120350 0.156337 0.000000 0.000000 0.000000
-0.360711 0.112253 -0.136065 0.000000 0.000000 0.000000
-0.508682 0.236032 0.029652 0.000000 0.000000 0.000000
-0.508577 0.232737 0.017487 0.000000 0.000000 0.000000
-0.288413 0.125929 0.130083 0.000000 0.000000 0.000000
-0.282349 0.167477 0.060254 0.000000 0.000000 0.000000
-0.288162 0.126717 0.128820 0.000000 0.000000 0.000000
-0.562428 0.238915 0.042352 0.000000 0.000000 0.000000
-0.342889 0.141194 0.209536 0.000000 0.000000 0.000000
-0.540984 0.157334 0.153129 0.000000 0.000000 0.000000
-0.336836 0.114400 0.155531 0.000000 0.000000 0.000000
-0.338377 0.252494 0.101525 0.000000 0.000000 0.000000
-0.342590 0.189701 0.130932 0.000000 0.000000 0.000000
-0.392322 0.224587 0.184318 0.000000 0.000000 0.000000
-0.350281 0.144009 0.256697 0.000000 0.000000 0.000000
-0.277523 0.060121 0.018189 0.000000 0.000000 0.000000
-0.268148 -0.467550 0.183754 0.000000 0.000000 0.000000
-0.332139 -0.212225 0.252598 0.000000 0.000000 0.000000
-0.269623 -0.501716 0.049713 0.000000 0.000000 0.000000
-0.265153 -0.213823 0.205571 0.000000 0.000000 0.000000
-0.275163 -0.400859 0.029196 0.000000 0.000000 0.000000
-0.261739 -0.211265 0.205713 0.000000 0.000000 0.000000
-0.277906 -0.311355 0.064843 0.000000 0.000000 0.000000
-0.322923 -0.237899 0.081158 0.000000 0.000000 0.000000
-0.256555 -0.216045 0.162955 0.000000 0.000000 0.000000
-0.505739 0.240358 0.042765 0.000000 0.000000 0.000000
-0.301152 -0.082640 -0.083365 0.000000 0.000000 0.000000
-0.385717 0.125735 -0.151867 0.000000 0.000000 0.000000
-0.482016 0.195197 -0.132715 0.000000 0.000000 0.000000
-0.276314 0.056048 0.084030 0.000000 0.000000 0.000000
-0.329931 -0.219264 0.226057 0.000000 0.000000 0.000000
-0.330526 -0.219580 0.226310 0.000000 0.000000 0.000000
-0.326337 -0.226555 0.081756 0.000000 0.000000 0.000000
-0.274223 -0.389573 0.080376 0.000000 0.000000 0.000000
-0.329700 -0.317957 0.379441 0.000000 0.000000 0.000000
-0.293599 -0.028059 -0.077552 0.000000 0.000000 0.000000
-0.299347 -0.089191 -0.049887 0.000000 0.000000 0.000000
-0.296894 -0.154041 -0.044096 0.000000 0.000000 0.000000
-0.336378 -0.312463 0.275041 0.000000 0.000000 0.000000
-0.273033 -0.382559 0.248765 0.000000 0.000000 0.000000
-0.275136 -0.269626 0.035271 0.000000 0.000000 0.000000
-0.272564 -0.399757 0.178870 0.000000 0.000000 0.000000
-0.274072 -0.434298 0.064253 0.000000 0.000000 0.000000
-0.573969 -2.009290 0.455403 0.000000 0.000000 0.000000
-0.922126 -2.074740 0.576029 0.000000 0.000000 0.000000
-0.361303 -2.058070 0.370242 0.000000 0.000000 0.000000
-0.901742 -2.115650 0.422724 0.000000 0.000000 0.000000
-0.921794 -1.918110 0.333460 0.000000 0.000000 0.000000
-0.613247 -1.991330 0.643150 0.000000 0.000000 0.000000
-0.737453 -1.767880 0.613712 0.000000 0.000000 0.000000
-0.622934 -2.062070 0.570446 0.000000 0.000000 0.000000
-0.655248 -2.098440 0.411860 0.000000 0.000000 0.000000
-0.273700 0.064325 0.056318 0.000000 0.000000 0.000000
-0.336736 0.145907 0.231398 0.000000 0.000000 0.000000
-0.299121 0.193449 -0.085529 0.000000 0.000000 0.000000
-0.277203 0.062822 0.017175 0.000000 0.000000 0.000000
-0.298083 -0.052927 -0.028013 0.000000 0.000000 0.000000
-0.297981 -0.421401 0.270955 0.000000 0.000000 0.000000
-0.274677 -0.319284 0.358226 0.000000 0.000000 0.000000
-0.298078 0.154058 -0.082233 0.000000 0.000000 0.000000
-0.280770 0.177294 0.046678 0.000000 0.000000 0.000000
-0.446450 0.195601 -0.135322 0.000000 0.000000 0.000000
-0.269855 0.082524 0.111634 0.000000 0.000000 0.000000
-0.279491 0.066816 0.086203 0.000000 0.000000 0.000000
-0.370777 0.023211 -0.095706 0.000000 0.000000 0.000000
-0.287492 0.034414 -0.044143 0.000000 0.000000 0.000000
-0.604778 0.131205 0.127488 0.000000 0.000000 0.000000
-0.282106 0.176249 0.046884 0.000000 0.000000 0.000000
-0.342451 0.187133 0.146094 0.000000 0.000000 0.000000
-0.281382 0.076356 0.088083 0.000000 0.000000 0.000000
-0.349898 0.186282 0.255208 0.000000 0.000000 0.000000
-0.347683 0.187869 0.256133 0.000000 0.000000 0.000000
-0.351830 0.250437 0.081106 0.000000 0.000000 0.000000
-0.346422 0.258368 0.128505 0.000000 0.000000 0.000000
-0.416763 0.222877 0.242070 0.000000 0.000000 0.000000
-0.520699 0.242597 0.055957 0.000000 0.000000 0.000000
-0.283478 0.128996 0.113917 0.000000 0.000000 0.000000
-0.447445 0.246329 0.228685 0.000000 0.000000 0.000000
-0.283205 0.078859 0.101569 0.000000 0.000000 0.000000
-0.567771 0.153070 0.199276 0.000000 0.000000 0.000000
-0.219813 -0.968078 0.555366 0.000000 0.000000 0.000000
-0.355753 -1.025300 0.445454 0.000000 0.000000 0.000000
-0.203202 -1.236880 0.463344 0.000000 0.000000 0.000000
-0.266417 -1.221320 0.475957 0.000000 0.000000 0.000000
-0.299429 -1.179600 0.512094 0.000000 0.000000 0.000000
-0.281867 -0.417074 0.021770 0.000000 0.000000 0.000000
-0.360074 -0.211497 0.119563 0.000000 0.000000 0.000000
-0.263040 -0.210583 0.206585 0.000000 0.000000 0.000000
-0.267318 -0.192759 0.216461 0.000000 0.000000 0.000000
-0.270119 -0.437628 0.164321 0.000000 0.000000 0.000000
-0.270902 -0.409465 0.270713 0.000000 0.000000 0.000000
-0.277853 -0.307642 0.183107 0.000000 0.000000 0.000000
-0.266369 -0.526911 0.091910 0.000000 0.000000 0.000000
-0.272164 -0.434713 -0.002391 0.000000 0.000000 0.000000
-0.275868 -0.394447 -0.009896 0.000000 0.000000 0.000000
-0.362958 -0.947170 0.438612 0.000000 0.000000 0.000000
-0.353688 -0.971449 0.421388 0.000000 0.000000 0.000000
-0.193837 -0.898316 0.532988 0.000000 0.000000 0.000000
-0.359612 -0.992066 0.438978 0.000000 0.000000 0.000000
-0.182584 -1.131910 0.241124 0.000000 0.000000 0.000000
-0.277700 -0.425066 0.066560 0.000000 0.000000 0.000000
-0.362344 -0.889144 0.416496 0.000000 0.000000 0.000000
-0.359305 -0.932309 0.431127 0.000000 0.000000 0.000000
-0.353664 -0.970976 0.420561 0.000000 0.000000 0.000000
-0.254876 -0.968169 0.554977 0.000000 0.000000 0.000000
-0.321855 -1.072590 0.441675 0.000000 0.000000 0.000000
-0.354927 -0.943541 0.416306 0.000000 0.000000 0.000000
-0.195365 -1.245710 0.426092 0.000000 0.000000 0.000000
-0.195372 -1.250840 0.404202 0.000000 0.000000 0.000000
-0.251052 -0.952383 0.551356 0.000000 0.000000 0.000000
-0.269992 -0.410196 0.271003 0.000000 0.000000 0.000000
-0.271429 -0.423393 0.163416 0.000000 0.000000 0.000000
-0.347830 -0.195544 0.206567 0.000000 0.000000 0.000000
-0.331827 -0.207925 0.241471 0.000000 0.000000 0.000000
-0.268281 -0.455861 0.147627 0.000000 0.000000 0.000000
-0.277171 -0.263572 0.091688 0.000000 0.000000 0.000000
-0.346221 -0.235361 0.150580 0.000000 0.000000 0.000000
-0.345077 -0.423086 0.354670 0.000000 0.000000 0.000000
-0.373183 -0.425382 0.359854 0.000000 0.000000 0.000000
-0.348357 -0.424626 0.354526 0.000000 0.000000 0.000000
-0.357031 0.104091 0.180101 0.000000 0.000000 0.000000
-0.325132 0.233605 0.104509 0.000000 0.000000 0.000000
-0.327747 0.231593 0.104105 0.000000 0.000000 0.000000
-0.462347 0.237307 0.169102 0.000000 0.000000 0.000000
-0.347135 0.227441 0.202827 0.000000 0.000000 0.000000
-0.430473 0.221289 -0.023491 0.000000 0.000000 0.000000
-0.347111 -0.227838 0.125122 0.000000 0.000000 0.000000
-0.277096 -0.331258 0.069478 0.000000 0.000000 0.000000
-0.272473 -0.376367 0.264346 0.000000 0.000000 0.000000
-0.341673 -0.191829 0.224833 0.000000 0.000000 0.000000
-0.331433 -0.218903 0.216557 0.000000 0.000000 0.000000
-0.335555 -0.325255 0.301845 0.000000 0.000000 0.000000
-0.336572 -0.303292 0.292998 0.000000 0.000000 0.000000
-0.269859 -0.441346 0.112803 0.000000 0.000000 0.000000
-0.281291 -0.347970 0.037440 0.000000 0.000000 0.000000
-0.272066 -0.408507 0.148114 0.000000 0.000000 0.000000
-0.280707 -0.261703 0.091288 0.000000 0.000000 0.000000
-0.355367 -0.944656 0.416695 0.000000 0.000000 0.000000
-0.361545 -0.889172 0.403550 0.000000 0.000000 0.000000
-0.565154 -2.003310 0.589430 0.000000 0.000000 0.000000
-0.531352 -1.767560 0.738904 0.000000 0.000000 0.000000
-0.883992 -1.718550 0.619200 0.000000 0.000000 0.000000
-0.588155 -2.039380 0.564276 0.000000 0.000000 0.000000
-0.853740 -1.764640 0.734539 0.000000 0.000000 0.000000
-0.681416 -1.720920 0.690192 0.000000 0.000000 0.000000
-0.634259 -1.609480 0.703899 0.000000 0.000000 0.000000
-0.357906 -0.411871 0.352690 0.000000 0.000000 0.000000
-0.195399 -1.255670 0.389009 0.000000 0.000000 0.000000
-0.192519 -1.262650 0.361387 0.000000 0.000000 0.000000
-0.300608 -1.179540 0.511991 0.000000 0.000000 0.000000
-0.272912 -1.182830 0.604755 0.000000 0.000000 0.000000
-0.187535 -1.272270 0.317407 0.000000 0.000000 0.000000
-0.226215 -0.968317 0.553432 0.000000 0.000000 0.000000
-0.301654 -1.189500 0.498787 0.000000 0.000000 0.000000
-0.203762 -0.908313 0.535502 0.000000 0.000000 0.000000
-0.266733 -0.466919 0.184148 0.000000 0.000000 0.000000
-0.347383 -0.174458 0.191127 0.000000 0.000000 0.000000
-0.264776 -0.215913 0.165906 0.000000 0.000000 0.000000
-0.620388 -2.046920 0.462232 0.000000 0.000000 0.000000
-0.658836 -1.951730 0.662455 0.000000 0.000000 0.000000
-0.621109 -2.057590 0.567077 0.000000 0.000000 0.000000
-0.658889 -1.946080 0.658986 0.000000 0.000000 0.000000
-0.846191 -2.103330 0.456020 0.000000 0.000000 0.000000
-0.216582 -1.351860 0.311831 0.000000 0.000000 0.000000
-0.344628 -0.283580 -0.035449 0.000000 0.000000 0.000000
-0.276234 -0.361064 0.009480 0.000000 0.000000 0.000000
-0.279899 -0.365276 0.011652 0.000000 0.000000 0.000000
-0.273475 -0.408717 0.017622 0.000000 0.000000 0.000000
-0.297111 -0.202699 -0.015843 0.000000 0.000000 0.000000
-0.279930 -0.306643 0.189793 0.000000 0.000000 0.000000
-0.269211 -0.449835 0.124162 0.000000 0.000000 0.000000
-0.270101 -0.400860 0.081937 0.000000 0.000000 0.000000
-0.327549 -0.316837 0.381131 0.000000 0.000000 0.000000
-0.337968 -0.212083 0.216861 0.000000 0.000000 0.000000
-0.340477 -0.211842 0.210528 0.000000 0.000000 0.000000
-0.275588 -0.345931 0.255882 0.000000 0.000000 0.000000
-0.346596 -0.202902 0.202335 0.000000 0.000000 0.000000
-0.273512 -0.384162 0.207737 0.000000 0.000000 0.000000
-0.378463 -1.075800 0.487666 0.000000 0.000000 0.000000
-0.363508 -0.918350 0.419503 0.000000 0.000000 0.000000
-0.351946 -1.064760 0.466092 0.000000 0.000000 0.000000
-0.361225 -0.951781 0.430641 0.000000 0.000000 0.000000
-0.355648 -1.025240 0.445749 0.000000 0.000000 0.000000
-0.362844 -0.947740 0.439882 0.000000 0.000000 0.000000
-0.301216 -1.204250 0.493706 0.000000 0.000000 0.000000
-0.300221 -1.167410 0.561426 0.000000 0.000000 0.000000
-0.292620 -1.198460 0.562787 0.000000 0.000000 0.000000
-0.247732 -1.060360 0.570733 0.000000 0.000000 0.000000
-0.298848 -0.095123 -0.070492 0.000000 0.000000 0.000000
-0.358563 0.195628 -0.144952 0.000000 0.000000 0.000000
-0.340492 0.265463 0.157865 0.000000 0.000000 0.000000
-0.250536 -0.856378 0.524169 0.000000 0.000000 0.000000
-0.301428 -1.168200 0.554746 0.000000 0.000000 0.000000
-0.252850 -0.531118 0.100144 0.000000 0.000000 0.000000
-0.269521 -0.409860 0.062445 0.000000 0.000000 0.000000
-0.367697 -0.441644 0.365854 0.000000 0.000000 0.000000
-0.267588 -0.460640 0.276079 0.000000 0.000000 0.000000
-0.306355 0.007592 -0.078195 0.000000 0.000000 0.000000
-0.268447 -0.449967 0.123222 0.000000 0.000000 0.000000
-0.264527 -0.504369 0.109694 0.000000 0.000000 0.000000
-0.261805 -0.220552 0.145799 0.000000 0.000000 0.000000
-0.272773 -0.425365 0.088778 0.000000 0.000000 0.000000
-0.257859 -0.483825 0.267040 0.000000 0.000000 0.000000
-0.272562 -0.451725 0.096060 0.000000 0.000000 0.000000
-0.274838 -0.460221 0.031466 0.000000 0.000000 0.000000
-0.348949 -0.348461 -0.029977 0.000000 0.000000 0.000000
-0.270714 -0.426765 0.194121 0.000000 0.000000 0.000000
-0.356874 -0.188348 0.166578 0.000000 0.000000 0.000000
-0.270762 -0.426658 0.193699 0.000000 0.000000 0.000000
-0.275925 -0.410600 0.018887 0.000000 0.000000 0.000000
-0.260349 -0.496388 0.218557 0.000000 0.000000 0.000000
-0.274381 -0.340806 0.039115 0.000000 0.000000 0.000000
-0.281496 -0.291128 -0.004352 0.000000 0.000000 0.000000
-0.277873 -0.325564 0.037148 0.000000 0.000000 0.000000
-0.362978 -0.224672 0.089187 0.000000 0.000000 0.000000
-0.291943 -0.348992 0.026228 0.000000 0.000000 0.000000
-0.275601 -0.426730 0.064349 0.000000 0.000000 0.000000
-0.273601 -0.384672 0.208744 0.000000 0.000000 0.000000
-0.213503 -1.348520 0.283139 0.000000 0.000000 0.000000
-0.239902 -1.285580 0.208922 0.000000 0.000000 0.000000
-0.235009 -1.004240 0.134828 0.000000 0.000000 0.000000
-0.244738 -1.322610 0.224277 0.000000 0.000000 0.000000
-0.239835 -1.289830 0.214494 0.000000 0.000000 0.000000
-0.223455 -1.104380 0.156847 0.000000 0.000000 0.000000
-0.216953 -1.081830 0.222223 0.000000 0.000000 0.000000
-0.210117 -1.235580 0.485249 0.000000 0.000000 0.000000
-0.248795 -1.156220 0.179187 0.000000 0.000000 0.000000
-0.239138 -1.288250 0.213319 0.000000 0.000000 0.000000
-0.225213 -1.196620 0.176391 0.000000 0.000000 0.000000
-0.212004 -1.983720 0.439002 0.000000 0.000000 0.000000
-0.266957 -1.989340 0.526884 0.000000 0.000000 0.000000
-0.917999 -2.107840 0.476026 0.000000 0.000000 0.000000
-0.846058 -2.103510 0.456679 0.000000 0.000000 0.000000
-0.948173 -1.685040 0.620209 0.000000 0.000000 0.000000
-0.775653 -1.746830 0.607032 0.000000 0.000000 0.000000
-0.977003 -1.755570 0.421034 0.000000 0.000000 0.000000
-0.974591 -1.734740 0.479496 0.000000 0.000000 0.000000
-1.017370 -1.804050 0.500353 0.000000 0.000000 0.000000
-0.355576 -0.944148 0.416359 0.000000 0.000000 0.000000
-0.350798 -1.060420 0.446916 0.000000 0.000000 0.000000
-0.319491 -0.329538 0.313240 0.000000 0.000000 0.000000
-0.361881 0.202823 -0.119577 0.000000 0.000000 0.000000
-0.521660 0.220614 -0.028882 0.000000 0.000000 0.000000
-0.324576 0.249473 0.094963 0.000000 0.000000 0.000000
-0.337658 -0.235283 0.360308 0.000000 0.000000 0.000000
-0.327687 -0.316654 0.380563 0.000000 0.000000 0.000000
-0.383408 -0.423173 0.378526 0.000000 0.000000 0.000000
-0.354427 -0.972376 0.421722 0.000000 0.000000 0.000000
-0.325150 -0.175080 0.271831 0.000000 0.000000 0.000000
-0.294793 -0.318323 0.233303 0.000000 0.000000 0.000000
-0.292018 -0.327644 0.238986 0.000000 0.000000 0.000000
-0.325866 -0.202273 0.310073 0.000000 0.000000 0.000000
-0.327957 -0.210660 0.282802 0.000000 0.000000 0.000000
-0.274037 -0.384915 0.208343 0.000000 0.000000 0.000000
-0.271728 -0.408120 0.147161 0.000000 0.000000 0.000000
-0.273179 -0.396903 0.230360 0.000000 0.000000 0.000000
-0.536454 0.197552 -0.149892 0.000000 0.000000 0.000000
-0.293227 -0.069559 -0.180217 0.000000 0.000000 0.000000
-0.300383 -0.077042 -0.177039 0.000000 0.000000 0.000000
-0.286027 -0.146184 -0.159676 0.000000 0.000000 0.000000
-0.570796 0.127612 -0.173667 0.000000 0.000000 0.000000
-0.299821 -0.149323 -0.077542 0.000000 0.000000 0.000000
-0.188365 -1.268780 0.327678 0.000000 0.000000 0.000000
-0.249304 -0.855655 0.515358 0.000000 0.000000 0.000000
-0.361299 -0.963085 0.420157 0.000000 0.000000 0.000000
-0.336314 -0.307463 0.252751 0.000000 0.000000 0.000000
-0.329940 -0.218708 0.214983 0.000000 0.000000 0.000000
-0.324888 -0.199748 0.258503 0.000000 0.000000 0.000000
-0.352957 -1.065620 0.465793 0.000000 0.000000 0.000000
-0.353619 -1.000810 0.426934 0.000000 0.000000 0.000000
-0.362935 -0.918073 0.421401 0.000000 0.000000 0.000000
-0.362225 -0.951791 0.429801 0.000000 0.000000 0.000000
-0.351389 -1.053520 0.473351 0.000000 0.000000 0.000000
-0.353320 -1.042780 0.463412 0.000000 0.000000 0.000000
-0.363694 -0.918372 0.420359 0.000000 0.000000 0.000000
-0.352288 -1.053560 0.472954 0.000000 0.000000 0.000000
-0.350204 -0.932835 0.413113 0.000000 0.000000 0.000000
-0.357276 -0.195972 0.138895 0.000000 0.000000 0.000000
-0.358627 -0.196420 0.139815 0.000000 0.000000 0.000000
-0.304738 -0.241646 0.065403 0.000000 0.000000 0.000000
-0.360061 -0.197919 0.140221 0.000000 0.000000 0.000000
-0.279804 -0.312484 0.074503 0.000000 0.000000 0.000000
-0.397656 0.220476 0.184212 0.000000 0.000000 0.000000
-0.551942 0.158008 0.202914 0.000000 0.000000 0.000000
-0.553002 0.145215 0.138722 0.000000 0.000000 0.000000
-0.495430 0.203906 0.174403 0.000000 0.000000 0.000000
-0.307887 0.049683 0.203146 0.000000 0.000000 0.000000
-0.462600 0.235790 0.174440 0.000000 0.000000 0.000000
-0.345582 -1.032730 0.441297 0.000000 0.000000 0.000000
-0.304293 0.180876 0.113809 0.000000 0.000000 0.000000
-0.347134 0.177267 0.213627 0.000000 0.000000 0.000000
-0.275532 -0.348816 0.135969 0.000000 0.000000 0.000000
-0.260569 -0.207342 0.019743 0.000000 0.000000 0.000000
-0.278314 -0.299034 0.158417 0.000000 0.000000 0.000000
-0.271951 -0.417821 0.117553 0.000000 0.000000 0.000000
-0.277148 -0.326466 0.129841 0.000000 0.000000 0.000000
-0.280162 -0.281090 0.035900 0.000000 0.000000 0.000000
-0.269644 -0.441623 0.176462 0.000000 0.000000 0.000000
-0.336365 -0.309026 0.285967 0.000000 0.000000 0.000000
-0.265472 -0.460036 0.278219 0.000000 0.000000 0.000000
-0.281629 -0.295158 0.231123 0.000000 0.000000 0.000000
-0.264973 -0.212775 0.206152 0.000000 0.000000 0.000000
-0.271621 -0.396820 0.230905 0.000000 0.000000 0.000000
-0.263495 -0.499115 0.133530 0.000000 0.000000 0.000000
-0.277382 -0.319051 0.238375 0.000000 0.000000 0.000000
-0.294172 -0.327447 0.238364 0.000000 0.000000 0.000000
-0.290040 -0.301379 0.233402 0.000000 0.000000 0.000000
-0.250373 -0.873112 0.529855 0.000000 0.000000 0.000000
-0.265527 -0.498252 0.133991 0.000000 0.000000 0.000000
-0.343808 -0.466122 0.367539 0.000000 0.000000 0.000000
-0.182543 -1.125890 0.239924 0.000000 0.000000 0.000000
-0.271748 -1.354160 0.296792 0.000000 0.000000 0.000000
-0.241834 -1.367840 0.281563 0.000000 0.000000 0.000000
-0.230146 -1.347020 0.309487 0.000000 0.000000 0.000000
-0.395732 -1.220990 0.490691 0.000000 0.000000 0.000000
-0.395162 -1.219500 0.474323 0.000000 0.000000 0.000000
-0.228165 -0.993449 0.207320 0.000000 0.000000 0.000000
-0.231700 -0.953900 0.186083 0.000000 0.000000 0.000000
-0.538603 -2.032270 0.571425 0.000000 0.000000 0.000000
-0.812965 -1.730960 0.588357 0.000000 0.000000 0.000000
-0.692542 -2.082810 0.494436 0.000000 0.000000 0.000000
-0.659829 -2.097160 0.446833 0.000000 0.000000 0.000000
-0.938397 -2.089660 0.523055 0.000000 0.000000 0.000000
-0.769110 -1.991620 0.703294 0.000000 0.000000 0.000000
-0.731556 -1.751770 0.615172 0.000000 0.000000 0.000000
-0.738174 -2.095260 0.457574 0.000000 0.000000 0.000000
-0.783310 -1.738930 0.542187 0.000000 0.000000 0.000000
-0.568351 -2.015640 0.545583 0.000000 0.000000 0.000000
-0.430114 -2.005230 0.518945 0.000000 0.000000 0.000000
-0.690301 -2.046610 0.602306 0.000000 0.000000 0.000000
-0.855401 -2.054500 0.643467 0.000000 0.000000 0.000000
-0.352841 -2.058400 0.373639 0.000000 0.000000 0.000000
-0.245610 -1.175690 0.476874 0.000000 0.000000 0.000000
-0.384560 -1.228530 0.491532 0.000000 0.000000 0.000000
-0.324424 -1.213480 0.499691 0.000000 0.000000 0.000000
-0.399556 -1.224160 0.481863 0.000000 0.000000 0.000000
-0.212092 -0.950380 0.551303 0.000000 0.000000 0.000000
-0.235445 -1.015870 0.563964 0.000000 0.000000 0.000000
-0.339104 -1.072710 0.442902 0.000000 0.000000 0.000000
-0.351612 -0.993142 0.425214 0.000000 0.000000 0.000000
-0.252510 -1.013740 0.560973 0.000000 0.000000 0.000000
-0.343414 -1.071260 0.489321 0.000000 0.000000 0.000000
-0.207095 -1.291810 0.276279 0.000000 0.000000 0.000000
-0.194935 -1.250500 0.403737 0.000000 0.000000 0.000000
-0.259989 -1.060330 0.566368 0.000000 0.000000 0.000000
-0.263556 -1.060380 0.564272 0.000000 0.000000 0.000000
-0.298142 -1.197680 0.558800 0.000000 0.000000 0.000000
-0.394618 -1.220580 0.475722 0.000000 0.000000 0.000000
-0.223691 -1.424250 0.555449 0.000000 0.000000 0.000000
-0.422538 -1.323150 0.630111 0.000000 0.000000 0.000000
-0.244532 -1.431400 0.574419 0.000000 0.000000 0.000000
-0.468112 -1.455930 0.664326 0.000000 0.000000 0.000000
-0.407804 -1.215860 0.608212 0.000000 0.000000 0.000000
-0.234731 -1.473690 0.520808 0.000000 0.000000 0.000000
-0.426050 -1.335430 0.634618 0.000000 0.000000 0.000000
-0.226704 -1.174360 0.171969 0.000000 0.000000 0.000000
-0.267622 -0.902861 0.219891 0.000000 0.000000 0.000000
-0.190952 -0.791082 0.096132 0.000000 0.000000 0.000000
-0.187438 -1.395570 0.496431 0.000000 0.000000 0.000000
-0.280949 -1.932530 0.662210 0.000000 0.000000 0.000000
-0.428491 -1.568490 0.676647 0.000000 0.000000 0.000000
-0.464698 -1.777110 0.742701 0.000000 0.000000 0.000000
-0.648810 -1.980830 0.648195 0.000000 0.000000 0.000000
-0.587971 -2.016940 0.531611 0.000000 0.000000 0.000000
-0.522072 -1.921590 0.761235 0.000000 0.000000 0.000000
-0.565235 -1.983050 0.635996 0.000000 0.000000 0.000000
-0.469887 -1.992220 0.589706 0.000000 0.000000 0.000000
-1.026510 -1.946030 0.552401 0.000000 0.000000 0.000000
-0.718122 -1.719660 0.659990 0.000000 0.000000 0.000000
-0.336593 -1.018980 0.564627 0.000000 0.000000 0.000000
-0.347354 -1.078630 0.480108 0.000000 0.000000 0.000000
-0.352435 -1.049690 0.543190 0.000000 0.000000 0.000000
-0.358253 -0.885620 0.526038 0.000000 0.000000 0.000000
-0.354982 -0.882352 0.509885 0.000000 0.000000 0.000000
-0.198833 -0.908480 0.534220 0.000000 0.000000 0.000000
-0.349613 -0.891718 0.384858 0.000000 0.000000 0.000000
-0.359077 -0.945446 0.425433 0.000000 0.000000 0.000000
-0.187791 -0.983032 0.559181 0.000000 0.000000 0.000000
-0.253081 -0.968174 0.549329 0.000000 0.000000 0.000000
-0.837781 -1.743780 0.603388 0.000000 0.000000 0.000000
-0.578335 -2.006650 0.525399 0.000000 0.000000 0.000000
-0.818895 -1.717550 0.606969 0.000000 0.000000 0.000000
-0.651206 -1.532020 0.693502 0.000000 0.000000 0.000000
-0.701974 -2.090560 0.364614 0.000000 0.000000 0.000000
-0.898649 -2.113860 0.423348 0.000000 0.000000 0.000000
-0.467754 -1.451410 0.662293 0.000000 0.000000 0.000000
-0.332312 -1.037520 0.531374 0.000000 0.000000 0.000000
-0.357373 -0.923983 0.440322 0.000000 0.000000 0.000000
-0.256824 -1.059640 0.566836 0.000000 0.000000 0.000000
-0.297039 -1.179450 0.513143 0.000000 0.000000 0.000000
-0.356211 -1.069800 0.571603 0.000000 0.000000 0.000000
-0.350930 -1.032720 0.561987 0.000000 0.000000 0.000000
-0.357529 -0.998896 0.439002 0.000000 0.000000 0.000000
-0.298743 -1.187410 0.490157 0.000000 0.000000 0.000000
-0.233677 -0.924892 0.139406 0.000000 0.000000 0.000000
-0.224080 -1.187680 0.184676 0.000000 0.000000 0.000000
-0.220743 -1.085140 0.152054 0.000000 0.000000 0.000000
-0.230372 -0.930587 0.126497 0.000000 0.000000 0.000000
-0.287997 -1.156770 0.580461 0.000000 0.000000 0.000000
-0.218375 -1.349290 0.317536 0.000000 0.000000 0.000000
-0.442938 -1.996570 0.524247 0.000000 0.000000 0.000000
-0.217077 -2.001880 0.529375 0.000000 0.000000 0.000000
-0.269960 -0.474161 0.101173 0.000000 0.000000 0.000000
-0.347124 -0.229484 0.126541 0.000000 0.000000 0.000000
-0.276760 -0.327264 0.078172 0.000000 0.000000 0.000000
-0.280281 -0.324536 0.011785 0.000000 0.000000 0.000000
-0.266880 -0.500611 0.104926 0.000000 0.000000 0.000000
-0.256458 -0.488465 0.263248 0.000000 0.000000 0.000000
-0.329149 -0.231736 0.083322 0.000000 0.000000 0.000000
-0.276405 -0.313786 0.192568 0.000000 0.000000 0.000000
-0.269081 -0.436541 0.277654 0.000000 0.000000 0.000000
-0.276381 -0.321073 0.353184 0.000000 0.000000 0.000000
-0.336392 -0.272180 0.357824 0.000000 0.000000 0.000000
-0.338940 -0.211750 0.217300 0.000000 0.000000 0.000000
-0.257264 -0.205885 0.168752 0.000000 0.000000 0.000000
-0.256365 -0.205687 0.167924 0.000000 0.000000 0.000000
-1.007310 -1.782360 0.541992 0.000000 0.000000 0.000000
-0.723751 -1.694960 0.619330 0.000000 0.000000 0.000000
-0.709043 -1.694650 0.680217 0.000000 0.000000 0.000000
-1.011910 -1.831140 0.512013 0.000000 0.000000 0.000000
-0.684716 -2.059280 0.529558 0.000000 0.000000 0.000000
-0.714223 -2.062150 0.634270 0.000000 0.000000 0.000000
-0.686554 -2.064260 0.555588 0.000000 0.000000 0.000000
-0.526732 -2.018120 0.533076 0.000000 0.000000 0.000000
-0.276518 -0.318104 0.383382 0.000000 0.000000 0.000000
-0.330487 -0.218413 0.260611 0.000000 0.000000 0.000000
-0.347906 -0.973728 0.417512 0.000000 0.000000 0.000000
-0.358851 -0.955934 0.419687 0.000000 0.000000 0.000000
-0.360572 -0.934024 0.430184 0.000000 0.000000 0.000000
-0.165129 -1.402890 0.216170 0.000000 0.000000 0.000000
-0.974689 -1.609940 0.698103 0.000000 0.000000 0.000000
-0.936314 -1.624030 0.622004 0.000000 0.000000 0.000000
-0.654518 -1.927260 0.761364 0.000000 0.000000 0.000000
-1.013910 -1.829930 0.514966 0.000000 0.000000 0.000000
-0.704023 -2.055440 0.611702 0.000000 0.000000 0.000000
-0.193739 -1.961280 0.633118 0.000000 0.000000 0.000000
-0.220290 -1.939870 0.649368 0.000000 0.000000 0.000000
-0.268392 -1.925690 0.686372 0.000000 0.000000 0.000000
-0.331873 -1.966510 0.618340 0.000000 0.000000 0.000000
-0.195744 -1.959690 0.637983 0.000000 0.000000 0.000000
-0.199503 -1.947130 0.664777 0.000000 0.000000 0.000000
-0.189075 -1.964300 0.641388 0.000000 0.000000 0.000000
-0.266383 -2.004790 0.628073 0.000000 0.000000 0.000000
-0.294952 -1.986250 0.600197 0.000000 0.000000 0.000000
-0.553934 -1.621200 0.708757 0.000000 0.000000 0.000000
-0.363749 -0.922731 0.435679 0.000000 0.000000 0.000000
-0.357687 -0.914240 0.406859 0.000000 0.000000 0.000000
-0.261748 -0.206536 0.019001 0.000000 0.000000 0.000000
-0.296624 -0.226619 -0.008475 0.000000 0.000000 0.000000
-0.290971 -0.200079 -0.021083 0.000000 0.000000 0.000000
-0.244846 0.093952 0.246084 0.000000 0.000000 0.000000
-0.194300 -1.246170 0.425833 0.000000 0.000000 0.000000
-0.255889 -0.952863 0.550618 0.000000 0.000000 0.000000
-0.300959 -1.167450 0.561581 0.000000 0.000000 0.000000
-0.296160 -1.210620 0.524784 0.000000 0.000000 0.000000
-0.351228 -1.073630 0.480998 0.000000 0.000000 0.000000
-0.292761 -1.205610 0.495404 0.000000 0.000000 0.000000
-0.350524 -0.176225 0.172285 0.000000 0.000000 0.000000
-0.336997 -0.322783 0.289994 0.000000 0.000000 0.000000
-0.336104 -0.319518 0.294362 0.000000 0.000000 0.000000
-0.273544 -0.379804 0.226422 0.000000 0.000000 0.000000
-0.343413 -0.208252 0.209363 0.000000 0.000000 0.000000
-0.277577 -0.308257 0.125207 0.000000 0.000000 0.000000
-0.265080 -0.197641 0.115434 0.000000 0.000000 0.000000
-0.270403 -0.375635 0.264116 0.000000 0.000000 0.000000
-0.251879 -0.221362 0.121139 0.000000 0.000000 0.000000
-0.291645 -0.315196 0.233239 0.000000 0.000000 0.000000
-0.276571 -0.308475 0.125426 0.000000 0.000000 0.000000
-0.329108 -0.222087 0.217035 0.000000 0.000000 0.000000
-0.259847 -0.216846 0.170430 0.000000 0.000000 0.000000
-0.280700 -0.270293 0.118240 0.000000 0.000000 0.000000
-0.279834 -0.361857 0.010836 0.000000 0.000000 0.000000
-0.332873 -0.204918 0.243553 0.000000 0.000000 0.000000
-0.337902 -0.305063 0.292391 0.000000 0.000000 0.000000
-0.339687 -0.246227 0.170879 0.000000 0.000000 0.000000
-0.342210 -0.220695 0.077685 0.000000 0.000000 0.000000
-0.342999 -0.221522 0.078082 0.000000 0.000000 0.000000
-0.279706 -0.267904 0.125913 0.000000 0.000000 0.000000
-0.259795 -0.212673 0.184169 0.000000 0.000000 0.000000
-0.348844 -0.176119 0.191017 0.000000 0.000000 0.000000
-0.348954 -0.175978 0.172281 0.000000 0.000000 0.000000
-0.226636 -0.994683 0.129361 0.000000 0.000000 0.000000
-0.221583 -1.072150 0.147389 0.000000 0.000000 0.000000
-0.225905 -0.965719 0.125891 0.000000 0.000000 0.000000
-0.222409 -1.187640 0.184555 0.000000 0.000000 0.000000
-0.220576 -1.139190 0.165597 0.000000 0.000000 0.000000
-0.194846 -1.184790 0.254235 0.000000 0.000000 0.000000
-0.237100 -1.366440 0.291524 0.000000 0.000000 0.000000
-0.795977 -1.730940 0.597337 0.000000 0.000000 0.000000
-0.848977 -1.709820 0.608795 0.000000 0.000000 0.000000
-0.528300 -2.010590 0.531061 0.000000 0.000000 0.000000
-0.676384 -1.953650 0.640763 0.000000 0.000000 0.000000
-0.502880 -2.005800 0.527466 0.000000 0.000000 0.000000
-0.916296 -2.109560 0.424335 0.000000 0.000000 0.000000
-0.211298 -1.990040 0.590691 0.000000 0.000000 0.000000
-0.223568 -2.000550 0.414387 0.000000 0.000000 0.000000
-0.588684 -1.950410 0.657620 0.000000 0.000000 0.000000
-0.530060 -1.991870 0.586341 0.000000 0.000000 0.000000
-0.524901 -1.869780 0.606392 0.000000 0.000000 0.000000
-0.476098 -1.966790 0.582662 0.000000 0.000000 0.000000
-0.477436 -1.944460 0.629847 0.000000 0.000000 0.000000
-0.193787 -1.787070 0.343252 0.000000 0.000000 0.000000
-0.193624 -1.787610 0.343614 0.000000 0.000000 0.000000
-0.268395 -1.999530 0.453966 0.000000 0.000000 0.000000
-0.546489 -1.954660 0.644966 0.000000 0.000000 0.000000
-0.880169 -1.875740 0.592185 0.000000 0.000000 0.000000
-0.893398 -1.902590 0.607326 0.000000 0.000000 0.000000
-0.644773 -2.043380 0.637793 0.000000 0.000000 0.000000
-0.670690 -2.094080 0.450844 0.000000 0.000000 0.000000
-0.345257 -1.986810 0.524276 0.000000 0.000000 0.000000
-0.230953 -0.934829 0.126613 0.000000 0.000000 0.000000
-0.231017 -0.932063 0.121547 0.000000 0.000000 0.000000
-0.296150 -1.211900 0.515405 0.000000 0.000000 0.000000
-0.285371 -1.228540 0.511335 0.000000 0.000000 0.000000
-0.190958 -1.963810 0.640121 0.000000 0.000000 0.000000
-0.371332 -1.307720 0.617075 0.000000 0.000000 0.000000
-0.520914 -1.235850 0.611698 0.000000 0.000000 0.000000
-0.278986 -1.302020 0.629192 0.000000 0.000000 0.000000
-0.411342 -1.577320 0.573615 0.000000 0.000000 0.000000
-0.276511 -0.348855 0.135282 0.000000 0.000000 0.000000
-0.264348 -0.496428 0.219730 0.000000 0.000000 0.000000
-0.243268 -0.527127 0.122440 0.000000 0.000000 0.000000
-0.236796 -0.524757 0.120801 0.000000 0.000000 0.000000
-0.296476 -0.527866 0.273649 0.000000 0.000000 0.000000
-0.333018 -0.323740 0.291980 0.000000 0.000000 0.000000
-0.272994 -0.396389 0.224094 0.000000 0.000000 0.000000
-0.273816 -0.332060 0.303101 0.000000 0.000000 0.000000
-0.259625 -0.483024 0.334171 0.000000 0.000000 0.000000
-0.343217 -0.170135 0.238115 0.000000 0.000000 0.000000
-0.265380 -0.499657 0.104582 0.000000 0.000000 0.000000
-0.319937 -1.027890 0.490524 0.000000 0.000000 0.000000
-0.288518 -0.256122 -0.028890 0.000000 0.000000 0.000000
-0.270414 -0.444664 0.195965 0.000000 0.000000 0.000000
-0.278750 -0.326591 0.336847 0.000000 0.000000 0.000000
-0.270072 -0.495092 0.053796 0.000000 0.000000 0.000000
-0.279829 -0.312938 0.073189 0.000000 0.000000 0.000000
-0.255610 -0.494436 0.249768 0.000000 0.000000 0.000000
-0.265378 -0.489706 0.140606 0.000000 0.000000 0.000000
-0.250204 -0.531164 0.104550 0.000000 0.000000 0.000000
-0.272890 -0.397152 0.107478 0.000000 0.000000 0.000000
-0.289128 -0.447220 0.119281 0.000000 0.000000 0.000000
-0.274013 -0.386841 0.120015 0.000000 0.000000 0.000000
-0.275543 -0.345079 0.247488 0.000000 0.000000 0.000000
-0.277362 -0.385720 0.052072 0.000000 0.000000 0.000000
-0.329305 -0.244704 0.107485 0.000000 0.000000 0.000000
-0.255352 -0.496732 0.248319 0.000000 0.000000 0.000000
-0.223115 -0.518696 0.116626 0.000000 0.000000 0.000000
-0.350342 -1.038610 0.463484 0.000000 0.000000 0.000000
-0.222558 -1.005530 0.562670 0.000000 0.000000 0.000000
-0.617917 -2.025280 0.646277 0.000000 0.000000 0.000000
-0.742154 -1.768350 0.603799 0.000000 0.000000 0.000000
-0.649585 -1.963370 0.646920 0.000000 0.000000 0.000000
-0.726221 -1.708810 0.632234 0.000000 0.000000 0.000000
-0.589253 -1.940540 0.692837 0.000000 0.000000 0.000000
-0.408765 -1.942560 0.663139 0.000000 0.000000 0.000000
-0.634854 -1.773140 0.744453 0.000000 0.000000 0.000000
-0.881806 -1.569770 0.676826 0.000000 0.000000 0.000000
-0.713626 -2.027750 0.632369 0.000000 0.000000 0.000000
-0.623236 -2.062660 0.537669 0.000000 0.000000 0.000000
-0.983169 -1.923900 0.611255 0.000000 0.000000 0.000000
-0.737824 -2.096040 0.457881 0.000000 0.000000 0.000000
-0.748581 -2.084480 0.415205 0.000000 0.000000 0.000000
-0.704760 -2.111310 0.416181 0.000000 0.000000 0.000000
-0.856757 -1.806750 0.741900 0.000000 0.000000 0.000000
-0.761702 -2.093490 0.482063 0.000000 0.000000 0.000000
-0.688872 -2.068810 0.552276 0.000000 0.000000 0.000000
-0.435864 -1.987850 0.551322 0.000000 0.000000 0.000000
-0.413672 -1.209510 0.608378 0.000000 0.000000 0.000000
-0.241841 -1.432000 0.575642 0.000000 0.000000 0.000000
-0.202580 -1.490660 0.526803 0.000000 0.000000 0.000000
-0.190579 -1.523160 0.474038 0.000000 0.000000 0.000000
-0.412268 -1.209630 0.608124 0.000000 0.000000 0.000000
-0.239742 -1.478190 0.526879 0.000000 0.000000 0.000000
-0.410828 -1.210050 0.609980 0.000000 0.000000 0.000000
-0.301855 -1.169710 0.589078 0.000000 0.000000 0.000000
-0.308396 -1.165670 0.584362 0.000000 0.000000 0.000000
-0.266893 -1.323530 0.447772 0.000000 0.000000 0.000000
-0.547255 -1.604050 0.704843 0.000000 0.000000 0.000000
-0.411835 -1.964730 0.638506 0.000000 0.000000 0.000000
-0.438519 -1.916870 0.714728 0.000000 0.000000 0.000000
-0.443429 -1.924510 0.691376 0.000000 0.000000 0.000000
-0.340729 -1.937680 0.653228 0.000000 0.000000 0.000000
-0.438014 -1.920340 0.722530 0.000000 0.000000 0.000000
-0.340995 -1.939430 0.653677 0.000000 0.000000 0.000000
-0.408052 -1.940730 0.664260 0.000000 0.000000 0.000000
-0.408178 -1.907510 0.776195 0.000000 0.000000 0.000000
-0.406356 -1.917280 0.762782 0.000000 0.000000 0.000000
-0.351753 -1.907240 0.775740 0.000000 0.000000 0.000000
-0.396287 -2.023010 0.629447 0.000000 0.000000 0.000000
-0.419850 -1.924310 0.728354 0.000000 0.000000 0.000000
-0.414345 -1.952800 0.648736 0.000000 0.000000 0.000000
-0.275461 -1.912790 0.749938 0.000000 0.000000 0.000000
-0.281008 -1.903800 0.767991 0.000000 0.000000 0.000000
-0.412515 -1.964360 0.638253 0.000000 0.000000 0.000000
-0.260580 -1.054400 0.434954 0.000000 0.000000 0.000000
-0.192144 -1.243990 0.436036 0.000000 0.000000 0.000000
-0.238798 -0.934488 0.157427 0.000000 0.000000 0.000000
-0.207753 -1.016030 0.557948 0.000000 0.000000 0.000000
-0.794314 -1.730650 0.596735 0.000000 0.000000 0.000000
-0.778608 -1.731490 0.571934 0.000000 0.000000 0.000000
-0.439396 -1.346910 0.522856 0.000000 0.000000 0.000000
-0.416253 -1.382280 0.503670 0.000000 0.000000 0.000000
-0.195259 -1.534040 0.438091 0.000000 0.000000 0.000000
-0.420346 -1.426180 0.500303 0.000000 0.000000 0.000000
-0.351875 -1.042460 0.463248 0.000000 0.000000 0.000000
-0.181685 -1.134140 0.241744 0.000000 0.000000 0.000000
-0.358487 -1.003010 0.436409 0.000000 0.000000 0.000000
-0.332776 -1.941770 0.645051 0.000000 0.000000 0.000000
-0.199979 -1.984610 0.533385 0.000000 0.000000 0.000000
-0.309057 -1.991660 0.518789 0.000000 0.000000 0.000000
-0.306343 -1.997470 0.562205 0.000000 0.000000 0.000000
-0.310585 -1.939310 0.654378 0.000000 0.000000 0.000000
-0.344774 -1.980760 0.526657 0.000000 0.000000 0.000000
-0.341113 -1.977680 0.543023 0.000000 0.000000 0.000000
-0.300049 -1.997530 0.532494 0.000000 0.000000 0.000000
-0.321470 -1.954660 0.642187 0.000000 0.000000 0.000000
-0.199833 -1.984010 0.533155 0.000000 0.000000 0.000000
-0.472856 -1.982170 0.583083 0.000000 0.000000 0.000000
-0.425156 -1.479960 0.549500 0.000000 0.000000 0.000000
-0.676269 -2.030880 0.634511 0.000000 0.000000 0.000000
-0.512744 -2.005450 0.531271 0.000000 0.000000 0.000000
-0.737735 -2.098540 0.457826 0.000000 0.000000 0.000000
-0.689427 -2.030560 0.630316 0.000000 0.000000 0.000000
-0.631859 -2.047810 0.628251 0.000000 0.000000 0.000000
-0.558750 -2.027370 0.535896 0.000000 0.000000 0.000000
-0.561920 -2.004810 0.529391 0.000000 0.000000 0.000000
-0.559663 -2.019020 0.532952 0.000000 0.000000 0.000000
-0.767553 -1.713610 0.600578 0.000000 0.000000 0.000000
-0.923381 -2.088240 0.502390 0.000000 0.000000 0.000000
-0.941195 -2.080090 0.557334 0.000000 0.000000 0.000000
-0.189704 -1.533040 0.466338 0.000000 0.000000 0.000000
-0.284384 -1.209850 0.602589 0.000000 0.000000 0.000000
-0.274767 -1.301630 0.625355 0.000000 0.000000 0.000000
-0.422011 -1.651590 0.688674 0.000000 0.000000 0.000000
-0.387354 -1.672720 0.618285 0.000000 0.000000 0.000000
-0.464801 -1.454060 0.662823 0.000000 0.000000 0.000000
-0.439682 -1.346270 0.523026 0.000000 0.000000 0.000000
-0.428354 -1.429460 0.536372 0.000000 0.000000 0.000000
-0.295255 -1.197600 0.562441 0.000000 0.000000 0.000000
-0.441078 -1.375720 0.526961 0.000000 0.000000 0.000000
-0.459379 -2.008370 0.424529 0.000000 0.000000 0.000000
-0.446103 -2.010790 0.381966 0.000000 0.000000 0.000000
-0.275774 -2.010360 0.426885 0.000000 0.000000 0.000000
-0.454911 -1.987010 0.467669 0.000000 0.000000 0.000000
-0.425531 -1.643390 0.679960 0.000000 0.000000 0.000000
-0.460872 -2.018710 0.426760 0.000000 0.000000 0.000000
-0.441885 -1.985610 0.539661 0.000000 0.000000 0.000000
-0.750884 -1.766980 0.613790 0.000000 0.000000 0.000000
-0.656951 -2.072080 0.503456 0.000000 0.000000 0.000000
-0.424130 -1.992620 0.557438 0.000000 0.000000 0.000000
-0.721689 -1.651760 0.705073 0.000000 0.000000 0.000000
-0.903751 -1.619580 0.678004 0.000000 0.000000 0.000000
-0.256508 -1.993640 0.527495 0.000000 0.000000 0.000000
-0.347016 -1.912190 0.775046 0.000000 0.000000 0.000000
-0.346892 -1.069440 0.437170 0.000000 0.000000 0.000000
-0.348855 -1.028080 0.432799 0.000000 0.000000 0.000000
-0.263505 -1.054030 0.433517 0.000000 0.000000 0.000000
-0.123825 -2.036240 0.552286 0.000000 0.000000 0.000000
-0.191466 -1.971210 0.417637 0.000000 0.000000 0.000000
-0.184945 -1.268790 0.334982 0.000000 0.000000 0.000000
-0.340829 -1.074020 0.440896 0.000000 0.000000 0.000000
-0.346430 -1.029040 0.433893 0.000000 0.000000 0.000000
-0.339864 -1.073660 0.441093 0.000000 0.000000 0.000000
-0.253335 -2.001730 0.631126 0.000000 0.000000 0.000000
-0.375819 -1.304510 0.615919 0.000000 0.000000 0.000000
-0.366713 -1.313840 0.625053 0.000000 0.000000 0.000000
-0.305559 -1.190260 0.495607 0.000000 0.000000 0.000000
-0.256280 -1.999760 0.529256 0.000000 0.000000 0.000000
-0.268384 -2.000060 0.530999 0.000000 0.000000 0.000000
-0.142738 -1.873520 0.612653 0.000000 0.000000 0.000000
-0.684457 -2.073390 0.503182 0.000000 0.000000 0.000000
-0.544320 -2.037440 0.573541 0.000000 0.000000 0.000000
-0.583615 -1.969180 0.650982 0.000000 0.000000 0.000000
-0.602124 -2.010480 0.591870 0.000000 0.000000 0.000000
-0.535585 -1.976170 0.580113 0.000000 0.000000 0.000000
-0.775645 -1.744470 0.607478 0.000000 0.000000 0.000000
-0.798642 -1.729120 0.586724 0.000000 0.000000 0.000000
-0.596245 -2.000960 0.639238 0.000000 0.000000 0.000000
-0.538484 -2.002530 0.636691 0.000000 0.000000 0.000000
-0.594280 -1.990250 0.592111 0.000000 0.000000 0.000000
-0.734863 -2.073990 0.548522 0.000000 0.000000 0.000000
-0.827802 -2.060230 0.640688 0.000000 0.000000 0.000000
-0.834035 -2.093160 0.494583 0.000000 0.000000 0.000000
-0.231951 -1.172810 0.171547 0.000000 0.000000 0.000000
-0.227452 -1.207070 0.185310 0.000000 0.000000 0.000000
-0.560511 -2.013630 0.440265 0.000000 0.000000 0.000000
-0.779210 -1.733780 0.563559 0.000000 0.000000 0.000000
-0.529044 -2.032390 0.515321 0.000000 0.000000 0.000000
-0.775928 -1.743870 0.607210 0.000000 0.000000 0.000000
-0.773732 -1.755960 0.598076 0.000000 0.000000 0.000000
-0.529587 -1.790350 0.726525 0.000000 0.000000 0.000000
-0.760322 -2.069050 0.572739 0.000000 0.000000 0.000000
-0.971471 -1.752590 0.673454 0.000000 0.000000 0.000000
-0.570010 -2.022420 0.524753 0.000000 0.000000 0.000000
-0.525014 -2.052670 0.520171 0.000000 0.000000 0.000000
-0.532117 -1.767710 0.740151 0.000000 0.000000 0.000000
-0.681378 -1.719580 0.687763 0.000000 0.000000 0.000000
-0.237670 -0.920858 0.147808 0.000000 0.000000 0.000000
-0.239896 -0.933875 0.157403 0.000000 0.000000 0.000000
-0.196263 -0.898622 0.531247 0.000000 0.000000 0.000000
-0.260848 -1.000240 0.497579 0.000000 0.000000 0.000000
-0.968714 -1.605610 0.691544 0.000000 0.000000 0.000000
-0.985230 -1.933360 0.616481 0.000000 0.000000 0.000000
