-0.271313 0.426726 0.079803 0.000000 0.000000 0.000000
-0.249716 0.347125 -0.124861 0.000000 0.000000 0.000000
-0.505444 0.574926 0.156228 0.000000 0.000000 0.000000
-0.504085 0.531111 0.151024 0.000000 0.000000 0.000000
-0.287881 0.472890 -0.048722 0.000000 0.000000 0.000000
-0.364289 0.550075 0.054649 0.000000 0.000000 0.000000
-0.531743 0.651665 0.017430 0.000000 0.000000 0.000000
-0.773039 0.351974 0.019612 0.000000 0.000000 0.000000
-0.907276 0.591029 0.032291 0.000000 0.000000 0.000000
-1.096960 0.666651 -0.072598 0.000000 0.000000 0.000000
-1.096880 0.800570 -0.087670 0.000000 0.000000 0.000000
-1.091260 1.017690 -0.144489 0.000000 0.000000 0.000000
-0.712837 1.040650 -0.069558 0.000000 0.000000 0.000000
-1.123730 0.941061 -0.178295 0.000000 0.000000 0.000000
-0.729392 1.179390 -0.141540 0.000000 0.000000 0.000000
-0.788148 1.178020 -0.133138 0.000000 0.000000 0.000000
-1.094520 1.038210 -0.152702 0.000000 0.000000 0.000000
-0.907534 1.062180 -0.168964 0.000000 0.000000 0.000000
-0.560454 1.109160 0.024263 0.000000 0.000000 0.000000
-0.571872 1.168380 -0.172407 0.000000 0.000000 0.000000
-0.814156 1.043990 -0.083266 0.000000 0.000000 0.000000
-0.722058 1.187150 -0.104729 0.000000 0.000000 0.000000
-0.801511 1.191080 -0.093371 0.000000 0.000000 0.000000
-0.944563 0.888210 -0.038372 0.000000 0.000000 0.000000
-0.456466 1.175250 -0.266691 0.000000 0.000000 0.000000
-0.800602 0.348983 0.027175 0.000000 0.000000 0.000000
-0.825196 0.310826 -0.118163 0.000000 0.000000 0.000000
-0.812343 0.331029 -0.041754 0.000000 0.000000 0.000000
-0.856813 0.588842 0.030921 0.000000 0.000000 0.000000
-0.777888 0.604783 0.028691 0.000000 0.000000 0.000000
-1.105090 0.336495 -0.036401 0.000000 0.000000 0.000000
-0.657395 0.522708 0.047178 0.000000 0.000000 0.000000
-0.908758 0.674593 0.015227 0.000000 0.000000 0.000000
-0.733109 0.557668 0.035132 0.000000 0.000000 0.000000
-0.777664 0.583697 0.031459 0.000000 0.000000 0.000000
-0.708122 0.599090 0.030916 0.000000 0.000000 0.000000
-1.093280 0.970617 -0.241603 0.000000 0.000000 0.000000
-0.680148 1.136280 0.017878 0.000000 0.000000 0.000000
-0.647733 1.022650 0.037334 0.000000 0.000000 0.000000
-0.603992 1.173800 0.009359 0.000000 0.000000 0.000000
-0.631284 1.141070 0.016062 0.000000 0.000000 0.000000
-1.095290 0.905426 -0.242100 0.000000 0.000000 0.000000
-0.814039 1.043150 -0.083030 0.000000 0.000000 0.000000
-0.562610 1.147290 0.014007 0.000000 0.000000 0.000000
-0.874629 1.166030 -0.193128 0.000000 0.000000 0.000000
-0.898334 0.790373 -0.015132 0.000000 0.000000 0.000000
-0.505748 0.489667 0.177063 0.000000 0.000000 0.000000
-0.525318 0.372706 0.117239 0.000000 0.000000 0.000000
-0.534219 0.605464 0.029389 0.000000 0.000000 0.000000
-0.519596 0.586394 0.153644 0.000000 0.000000 0.000000
-0.504520 0.495882 0.170773 0.000000 0.000000 0.000000
-0.515916 0.565676 0.042539 0.000000 0.000000 0.000000
-0.288412 0.472205 -0.044346 0.000000 0.000000 0.000000
-0.292044 0.493426 -0.042876 0.000000 0.000000 0.000000
-0.531264 0.652001 0.016892 0.000000 0.000000 0.000000
-0.275053 0.510676 0.052036 0.000000 0.000000 0.000000
-0.273090 0.448363 0.065253 0.000000 0.000000 0.000000
-0.267830 0.446824 0.049444 0.000000 0.000000 0.000000
-0.275462 0.512406 0.049683 0.000000 0.000000 0.000000
-0.276226 0.514174 0.050652 0.000000 0.000000 0.000000
-0.718432 1.022630 -0.077128 0.000000 0.000000 0.000000
-0.752701 0.952646 -0.057916 0.000000 0.000000 0.000000
-1.098160 0.581929 -0.060018 0.000000 0.000000 0.000000
-1.098430 0.553079 -0.067248 0.000000 0.000000 0.000000
-0.893287 0.672952 0.011257 0.000000 0.000000 0.000000
-0.842010 0.557776 0.036508 0.000000 0.000000 0.000000
-1.095490 0.562615 -0.033610 0.000000 0.000000 0.000000
-0.925609 0.622912 0.023909 0.000000 0.000000 0.000000
-0.934964 0.719773 0.005422 0.000000 0.000000 0.000000
-1.098370 0.631035 -0.099465 0.000000 0.000000 0.000000
-1.100960 0.545373 -0.053774 0.000000 0.000000 0.000000
-0.937498 0.721693 0.006010 0.000000 0.000000 0.000000
-1.096770 0.716999 -0.090673 0.000000 0.000000 0.000000
-1.097410 0.587098 -0.023145 0.000000 0.000000 0.000000
-1.098510 0.549608 -0.080449 0.000000 0.000000 0.000000
-1.093740 0.711661 -0.070680 0.000000 0.000000 0.000000
-0.921761 0.594274 0.035978 0.000000 0.000000 0.000000
-0.808429 0.658404 0.014661 0.000000 0.000000 0.000000
-1.098040 0.587534 -0.022356 0.000000 0.000000 0.000000
-0.936779 0.721498 0.005432 0.000000 0.000000 0.000000
-0.894394 0.674320 0.011482 0.000000 0.000000 0.000000
-0.797013 1.200700 0.002906 0.000000 0.000000 0.000000
-1.103220 0.928761 -0.231885 0.000000 0.000000 0.000000
-0.300560 0.686370 0.101657 0.000000 0.000000 0.000000
-0.285622 0.761514 0.005406 0.000000 0.000000 0.000000
-0.538533 0.834614 -0.030294 0.000000 0.000000 0.000000
-0.380478 0.652710 0.034570 0.000000 0.000000 0.000000
-0.633014 0.815187 -0.029261 0.000000 0.000000 0.000000
-0.253449 0.685428 0.130187 0.000000 0.000000 0.000000
-0.339618 0.761001 0.043658 0.000000 0.000000 0.000000
-1.097640 0.436545 -0.121117 0.000000 0.000000 0.000000
-1.100080 0.351462 -0.096942 0.000000 0.000000 0.000000
-0.371099 1.169380 -0.007599 0.000000 0.000000 0.000000
-0.610180 1.206120 -0.005785 0.000000 0.000000 0.000000
-0.659412 1.205480 -0.009484 0.000000 0.000000 0.000000
-1.097110 0.927115 -0.170880 0.000000 0.000000 0.000000
-0.537593 1.003240 -0.062218 0.000000 0.000000 0.000000
-0.642250 1.180560 -0.130986 0.000000 0.000000 0.000000
-1.096270 0.883371 -0.252359 0.000000 0.000000 0.000000
-1.096760 0.763279 -0.081099 0.000000 0.000000 0.000000
-1.096280 1.015100 -0.149525 0.000000 0.000000 0.000000
-1.096740 1.014460 -0.149736 0.000000 0.000000 0.000000
-0.302418 1.193220 -0.020999 0.000000 0.000000 0.000000
-0.268073 1.127770 -0.223394 0.000000 0.000000 0.000000
-0.321826 1.186300 -0.018449 0.000000 0.000000 0.000000
-0.250123 1.171540 -0.072293 0.000000 0.000000 0.000000
-0.252477 1.172500 -0.069587 0.000000 0.000000 0.000000
-0.240789 1.238050 -0.019183 0.000000 0.000000 0.000000
-0.300594 1.118550 -0.237785 0.000000 0.000000 0.000000
-0.286649 1.175630 -0.000409 0.000000 0.000000 0.000000
-0.241196 1.135910 -0.241246 0.000000 0.000000 0.000000
-0.242723 1.187150 -0.006975 0.000000 0.000000 0.000000
-0.306647 1.120960 -0.221576 0.000000 0.000000 0.000000
-0.251786 1.130020 -0.223649 0.000000 0.000000 0.000000
-0.795909 1.172730 -0.144151 0.000000 0.000000 0.000000
-1.033600 1.210440 -0.048025 0.000000 0.000000 0.000000
-0.767134 1.196250 0.013819 0.000000 0.000000 0.000000
-0.804749 1.186790 -0.143115 0.000000 0.000000 0.000000
-1.095630 0.971222 -0.125899 0.000000 0.000000 0.000000
-0.877588 1.183310 -0.135620 0.000000 0.000000 0.000000
-1.098600 1.101540 -0.172888 0.000000 0.000000 0.000000
-0.588582 1.048700 -0.072285 0.000000 0.000000 0.000000
-1.104150 1.090660 -0.289247 0.000000 0.000000 0.000000
-0.369816 1.170610 -0.016712 0.000000 0.000000 0.000000
-0.356990 0.599062 0.052007 0.000000 0.000000 0.000000
-0.221053 0.342762 -0.016506 0.000000 0.000000 0.000000
-0.270627 0.607013 0.029097 0.000000 0.000000 0.000000
-0.252836 0.383795 -0.085767 0.000000 0.000000 0.000000
-0.289905 0.492620 -0.026196 0.000000 0.000000 0.000000
-0.540075 0.592348 0.147696 0.000000 0.000000 0.000000
-0.580985 1.060100 0.031536 0.000000 0.000000 0.000000
-0.626048 1.210180 -0.011810 0.000000 0.000000 0.000000
-0.573270 1.036630 -0.079617 0.000000 0.000000 0.000000
-0.567073 1.165980 0.005544 0.000000 0.000000 0.000000
-0.626977 1.210200 -0.010115 0.000000 0.000000 0.000000
-0.615310 0.989112 0.042589 0.000000 0.000000 0.000000
-0.606944 1.176890 0.010732 0.000000 0.000000 0.000000
-0.855200 1.018640 -0.078583 0.000000 0.000000 0.000000
-0.551737 1.067350 0.030062 0.000000 0.000000 0.000000
-0.680275 1.096730 0.022212 0.000000 0.000000 0.000000
-0.551486 1.066910 0.029369 0.000000 0.000000 0.000000
-0.552843 1.065420 0.029314 0.000000 0.000000 0.000000
-0.553878 1.065380 0.028745 0.000000 0.000000 0.000000
-0.301852 1.114230 -0.253767 0.000000 0.000000 0.000000
-0.685077 1.095800 0.022855 0.000000 0.000000 0.000000
-0.638656 1.082520 0.023630 0.000000 0.000000 0.000000
-0.318575 1.186610 -0.013481 0.000000 0.000000 0.000000
-0.246283 0.943681 -0.041338 0.000000 0.000000 0.000000
-0.369131 1.161030 -0.055344 0.000000 0.000000 0.000000
-1.093960 1.080690 -0.280547 0.000000 0.000000 0.000000
-0.261573 0.778056 0.077083 0.000000 0.000000 0.000000
-0.266299 0.850750 -0.013072 0.000000 0.000000 0.000000
-0.236806 0.695758 -0.184856 0.000000 0.000000 0.000000
-0.310464 0.768822 0.039294 0.000000 0.000000 0.000000
-0.324349 0.847204 -0.182113 0.000000 0.000000 0.000000
-0.263795 0.759826 0.031241 0.000000 0.000000 0.000000
-0.349328 0.744599 0.005825 0.000000 0.000000 0.000000
-0.249018 0.713422 -0.222037 0.000000 0.000000 0.000000
-0.250301 0.752486 -0.088878 0.000000 0.000000 0.000000
-0.244639 1.176890 -0.291767 0.000000 0.000000 0.000000
-0.245444 1.173110 -0.246431 0.000000 0.000000 0.000000
-0.241421 1.224920 -0.011639 0.000000 0.000000 0.000000
-0.373157 1.140020 -0.110860 0.000000 0.000000 0.000000
-0.238374 0.998839 -0.191313 0.000000 0.000000 0.000000
-0.239934 0.997531 -0.194738 0.000000 0.000000 0.000000
-0.704152 1.042900 -0.087314 0.000000 0.000000 0.000000
-0.648456 1.049650 -0.080962 0.000000 0.000000 0.000000
-0.819878 1.044450 -0.082807 0.000000 0.000000 0.000000
-0.859258 0.578168 0.033400 0.000000 0.000000 0.000000
-0.859542 0.576582 0.034722 0.000000 0.000000 0.000000
-0.933790 0.718000 0.005447 0.000000 0.000000 0.000000
-0.790562 0.610562 0.026448 0.000000 0.000000 0.000000
-1.097350 0.970245 -0.242007 0.000000 0.000000 0.000000
-0.243268 1.228570 -0.055102 0.000000 0.000000 0.000000
-0.408733 1.151960 0.008589 0.000000 0.000000 0.000000
-1.109010 1.097770 -0.306551 0.000000 0.000000 0.000000
-1.095510 1.012010 -0.152360 0.000000 0.000000 0.000000
-0.541152 1.040870 0.009961 0.000000 0.000000 0.000000
-0.656693 1.117480 0.011243 0.000000 0.000000 0.000000
-0.931145 1.213280 -0.006741 0.000000 0.000000 0.000000
-0.736311 1.044980 -0.070059 0.000000 0.000000 0.000000
-0.573945 1.032170 -0.083297 0.000000 0.000000 0.000000
-0.603971 1.175130 0.009287 0.000000 0.000000 0.000000
-0.566578 1.174870 -0.143105 0.000000 0.000000 0.000000
-0.575062 1.177760 -0.152412 0.000000 0.000000 0.000000
-0.620679 1.161460 0.012247 0.000000 0.000000 0.000000
-0.574829 1.032480 -0.083139 0.000000 0.000000 0.000000
-0.703051 1.209550 -0.003888 0.000000 0.000000 0.000000
-0.554490 1.035160 -0.079990 0.000000 0.000000 0.000000
-0.579434 1.036670 -0.078624 0.000000 0.000000 0.000000
-1.088360 1.015750 -0.219527 0.000000 0.000000 0.000000
-0.791303 1.179220 -0.143175 0.000000 0.000000 0.000000
-1.096300 0.942496 -0.235281 0.000000 0.000000 0.000000
-1.109930 0.941154 -0.176652 0.000000 0.000000 0.000000
-1.092830 0.973567 -0.230324 0.000000 0.000000 0.000000
-0.811211 0.945587 -0.058618 0.000000 0.000000 0.000000
-1.096220 0.915457 -0.225586 0.000000 0.000000 0.000000
-0.492749 1.179110 0.003213 0.000000 0.000000 0.000000
-0.592769 1.198930 -0.007589 0.000000 0.000000 0.000000
-0.502824 1.198580 -0.003617 0.000000 0.000000 0.000000
-0.764439 1.202640 -0.007182 0.000000 0.000000 0.000000
-0.708665 1.063410 0.034698 0.000000 0.000000 0.000000
-0.621608 0.983552 0.042242 0.000000 0.000000 0.000000
-1.085550 0.539005 -0.027560 0.000000 0.000000 0.000000
-1.103260 0.475872 -0.013567 0.000000 0.000000 0.000000
-1.100630 0.444477 -0.057511 0.000000 0.000000 0.000000
-1.098610 0.446314 -0.077177 0.000000 0.000000 0.000000
-1.098860 0.437823 -0.060935 0.000000 0.000000 0.000000
-0.730488 1.040500 -0.083114 0.000000 0.000000 0.000000
-0.710864 1.040130 -0.070942 0.000000 0.000000 0.000000
-0.854195 1.043290 -0.078223 0.000000 0.000000 0.000000
-0.670725 1.045530 -0.078094 0.000000 0.000000 0.000000
-0.847367 1.200830 -0.011312 0.000000 0.000000 0.000000
-1.095280 0.920487 -0.107583 0.000000 0.000000 0.000000
-1.095870 1.051500 -0.178841 0.000000 0.000000 0.000000
-0.797999 0.952855 -0.063009 0.000000 0.000000 0.000000
-0.799830 1.164740 -0.200863 0.000000 0.000000 0.000000
-0.971136 1.213470 -0.006138 0.000000 0.000000 0.000000
-0.923659 0.921861 -0.044518 0.000000 0.000000 0.000000
-0.849940 1.043140 -0.081981 0.000000 0.000000 0.000000
-0.634790 1.042830 -0.078161 0.000000 0.000000 0.000000
-1.098540 0.681048 -0.061373 0.000000 0.000000 0.000000
-1.097150 0.648650 -0.066008 0.000000 0.000000 0.000000
-1.097850 0.572011 -0.035964 0.000000 0.000000 0.000000
-0.904469 0.592278 0.030926 0.000000 0.000000 0.000000
-1.096230 0.655700 -0.114978 0.000000 0.000000 0.000000
-1.097770 0.712410 -0.077010 0.000000 0.000000 0.000000
-0.928518 0.902467 -0.039628 0.000000 0.000000 0.000000
-0.964077 0.978654 -0.052641 0.000000 0.000000 0.000000
-1.094920 0.921989 -0.176532 0.000000 0.000000 0.000000
-0.701054 1.194560 0.004275 0.000000 0.000000 0.000000
-1.100630 1.026140 -0.272887 0.000000 0.000000 0.000000
-0.692239 1.209920 -0.005386 0.000000 0.000000 0.000000
-0.963501 1.210350 -0.007573 0.000000 0.000000 0.000000
-1.086860 1.067170 -0.160514 0.000000 0.000000 0.000000
-1.094330 0.934008 -0.127801 0.000000 0.000000 0.000000
-1.094980 0.821568 -0.217596 0.000000 0.000000 0.000000
-0.944403 0.901838 -0.041835 0.000000 0.000000 0.000000
-1.094150 0.942262 -0.199005 0.000000 0.000000 0.000000
-1.093810 1.051560 -0.045830 0.000000 0.000000 0.000000
-0.940342 0.807241 -0.019476 0.000000 0.000000 0.000000
-1.022630 1.203260 -0.058534 0.000000 0.000000 0.000000
-1.093810 0.841468 -0.188620 0.000000 0.000000 0.000000
-1.096090 0.712757 -0.071106 0.000000 0.000000 0.000000
-0.365971 1.163120 -0.027772 0.000000 0.000000 0.000000
-0.243389 1.031630 0.023842 0.000000 0.000000 0.000000
-0.233644 1.054950 0.011560 0.000000 0.000000 0.000000
-0.751363 1.189600 0.004943 0.000000 0.000000 0.000000
-1.098940 0.702609 -0.067947 0.000000 0.000000 0.000000
-0.747670 0.949553 -0.059062 0.000000 0.000000 0.000000
-1.100220 0.733885 -0.244321 0.000000 0.000000 0.000000
-0.863095 1.066950 -0.081241 0.000000 0.000000 0.000000
-0.866048 1.160570 0.016362 0.000000 0.000000 0.000000
-0.629053 1.053820 0.034800 0.000000 0.000000 0.000000
-0.580870 0.995515 -0.034225 0.000000 0.000000 0.000000
-0.594722 1.070000 -0.078018 0.000000 0.000000 0.000000
-0.602208 1.070650 -0.076098 0.000000 0.000000 0.000000
-0.580890 1.066900 -0.079447 0.000000 0.000000 0.000000
-0.582993 1.066810 -0.083787 0.000000 0.000000 0.000000
-0.596710 1.069070 -0.075596 0.000000 0.000000 0.000000
-0.549943 1.063960 -0.092756 0.000000 0.000000 0.000000
-0.630184 1.173280 0.006730 0.000000 0.000000 0.000000
-0.241245 1.024810 -0.113398 0.000000 0.000000 0.000000
-0.260921 1.087070 -0.212829 0.000000 0.000000 0.000000
-0.261356 1.178270 -0.092068 0.000000 0.000000 0.000000
-0.814086 1.193680 -0.218101 0.000000 0.000000 0.000000
-0.814444 1.189210 -0.236161 0.000000 0.000000 0.000000
-0.798043 1.192450 -0.153341 0.000000 0.000000 0.000000
-0.777854 1.207050 -0.158149 0.000000 0.000000 0.000000
-0.258489 0.701570 -0.158439 0.000000 0.000000 0.000000
-0.482109 0.948663 -0.044921 0.000000 0.000000 0.000000
-0.239361 0.686494 -0.214760 0.000000 0.000000 0.000000
-0.264460 0.701925 -0.144508 0.000000 0.000000 0.000000
-0.251647 0.673149 -0.210811 0.000000 0.000000 0.000000
-0.239135 0.720307 -0.214309 0.000000 0.000000 0.000000
-0.235066 0.751005 -0.192531 0.000000 0.000000 0.000000
-0.302070 0.823579 -0.249686 0.000000 0.000000 0.000000
-0.329786 0.918604 -0.242920 0.000000 0.000000 0.000000
-0.484615 0.856600 -0.343347 0.000000 0.000000 0.000000
-0.485435 0.857046 -0.344540 0.000000 0.000000 0.000000
-0.411247 0.907109 -0.359433 0.000000 0.000000 0.000000
-0.261309 0.745795 -0.218801 0.000000 0.000000 0.000000
-0.380143 1.154800 -0.229277 0.000000 0.000000 0.000000
-0.267058 0.948293 -0.214109 0.000000 0.000000 0.000000
-0.382917 1.157580 -0.224558 0.000000 0.000000 0.000000
-0.699762 0.895611 -0.049977 0.000000 0.000000 0.000000
-0.526248 0.862437 -0.036758 0.000000 0.000000 0.000000
-0.328424 0.920980 -0.212718 0.000000 0.000000 0.000000
-0.382238 1.152140 -0.245597 0.000000 0.000000 0.000000
-0.735004 1.216960 -0.158858 0.000000 0.000000 0.000000
-0.448417 1.198170 -0.186130 0.000000 0.000000 0.000000
-0.232241 0.744799 -0.221259 0.000000 0.000000 0.000000
-0.275538 1.106080 -0.311657 0.000000 0.000000 0.000000
-0.352829 0.719874 -0.230736 0.000000 0.000000 0.000000
-0.244776 1.051870 -0.135640 0.000000 0.000000 0.000000
-0.253627 0.804835 0.035705 0.000000 0.000000 0.000000
-0.262847 0.832911 0.025577 0.000000 0.000000 0.000000
-0.262026 0.859386 -0.003882 0.000000 0.000000 0.000000
-0.262808 0.933906 -0.206194 0.000000 0.000000 0.000000
-0.266725 0.948992 -0.161321 0.000000 0.000000 0.000000
-0.252490 0.632456 -0.199772 0.000000 0.000000 0.000000
-0.260196 0.712743 -0.210756 0.000000 0.000000 0.000000
-0.237177 0.695585 -0.209248 0.000000 0.000000 0.000000
-0.323990 0.847216 -0.181880 0.000000 0.000000 0.000000
-0.331902 0.842529 -0.219969 0.000000 0.000000 0.000000
-0.746802 0.653288 0.006876 0.000000 0.000000 0.000000
-0.681158 0.795655 -0.038394 0.000000 0.000000 0.000000
-0.673364 0.770809 -0.029699 0.000000 0.000000 0.000000
-0.219628 0.738155 0.051998 0.000000 0.000000 0.000000
-0.296722 0.692488 0.044331 0.000000 0.000000 0.000000
-0.269476 0.626588 0.129739 0.000000 0.000000 0.000000
-0.268453 0.604990 0.025610 0.000000 0.000000 0.000000
-0.258226 0.762656 0.047990 0.000000 0.000000 0.000000
-0.265624 0.812431 -0.009063 0.000000 0.000000 0.000000
-0.354888 0.700796 0.021167 0.000000 0.000000 0.000000
-0.343777 0.453015 0.084833 0.000000 0.000000 0.000000
-0.359051 1.170280 -0.316584 0.000000 0.000000 0.000000
-1.084710 1.127920 -0.175926 0.000000 0.000000 0.000000
-0.622641 1.182680 -0.256472 0.000000 0.000000 0.000000
-0.692852 0.873044 -0.046011 0.000000 0.000000 0.000000
-0.657749 1.209020 -0.127345 0.000000 0.000000 0.000000
-0.443588 1.133820 -0.340024 0.000000 0.000000 0.000000
-0.400212 1.168460 -0.299854 0.000000 0.000000 0.000000
-0.775678 1.207020 -0.158166 0.000000 0.000000 0.000000
-0.746749 1.206350 -0.157168 0.000000 0.000000 0.000000
-0.678759 1.181090 -0.260167 0.000000 0.000000 0.000000
-0.680851 1.191490 -0.219763 0.000000 0.000000 0.000000
-0.634667 1.191000 -0.218769 0.000000 0.000000 0.000000
-0.747309 1.205230 -0.157413 0.000000 0.000000 0.000000
-0.572046 1.169130 -0.300785 0.000000 0.000000 0.000000
-0.664836 1.205350 -0.154745 0.000000 0.000000 0.000000
-0.632483 1.186730 -0.232432 0.000000 0.000000 0.000000
-0.632755 1.190150 -0.221771 0.000000 0.000000 0.000000
-0.569837 1.207050 -0.146157 0.000000 0.000000 0.000000
-0.281798 1.174580 -0.317717 0.000000 0.000000 0.000000
-0.572200 1.206630 -0.148844 0.000000 0.000000 0.000000
-0.811310 0.945437 -0.058350 0.000000 0.000000 0.000000
-0.824452 0.309751 -0.118751 0.000000 0.000000 0.000000
-0.839241 0.308854 -0.128478 0.000000 0.000000 0.000000
-0.690439 0.354953 0.038103 0.000000 0.000000 0.000000
-0.693946 0.357804 0.014812 0.000000 0.000000 0.000000
-1.100150 0.326991 -0.112346 0.000000 0.000000 0.000000
-0.634842 1.159980 -0.281848 0.000000 0.000000 0.000000
-0.434092 1.197740 -0.184448 0.000000 0.000000 0.000000
-0.849349 1.196410 -0.216372 0.000000 0.000000 0.000000
-0.684576 0.359145 0.014500 0.000000 0.000000 0.000000
-1.101610 0.533116 -0.080897 0.000000 0.000000 0.000000
-0.915660 0.670603 0.016311 0.000000 0.000000 0.000000
-0.720611 0.317333 -0.127625 0.000000 0.000000 0.000000
-0.752130 0.320936 -0.117126 0.000000 0.000000 0.000000
-0.930078 0.603183 0.027218 0.000000 0.000000 0.000000
-0.906944 0.604957 0.027147 0.000000 0.000000 0.000000
-1.099020 0.411482 0.005175 0.000000 0.000000 0.000000
-0.802454 0.514060 0.052822 0.000000 0.000000 0.000000
-0.884504 0.363055 0.113920 0.000000 0.000000 0.000000
-0.393822 0.608028 0.078401 0.000000 0.000000 0.000000
-0.391904 0.603192 0.081565 0.000000 0.000000 0.000000
-0.264276 0.421364 0.075757 0.000000 0.000000 0.000000
-0.498278 0.658313 0.133793 0.000000 0.000000 0.000000
-0.502602 0.533509 0.047582 0.000000 0.000000 0.000000
-0.530565 0.685143 0.125569 0.000000 0.000000 0.000000
-0.343688 0.551236 -0.186458 0.000000 0.000000 0.000000
-0.533985 0.735187 0.003280 0.000000 0.000000 0.000000
-0.532516 0.822415 -0.026296 0.000000 0.000000 0.000000
-0.722679 0.352623 0.034025 0.000000 0.000000 0.000000
-1.098570 0.348274 -0.084759 0.000000 0.000000 0.000000
-0.658452 0.493300 0.058590 0.000000 0.000000 0.000000
-0.681721 0.499782 0.052943 0.000000 0.000000 0.000000
-0.717420 0.349200 0.017437 0.000000 0.000000 0.000000
-0.819581 0.321536 -0.120150 0.000000 0.000000 0.000000
-0.683570 0.348692 0.021337 0.000000 0.000000 0.000000
-0.837932 0.313183 -0.128224 0.000000 0.000000 0.000000
-0.812207 0.362157 -0.206942 0.000000 0.000000 0.000000
-0.937195 0.609316 0.028419 0.000000 0.000000 0.000000
-0.935861 0.586316 0.033289 0.000000 0.000000 0.000000
-0.935544 0.585032 0.033807 0.000000 0.000000 0.000000
-1.096510 0.554687 -0.104505 0.000000 0.000000 0.000000
-0.923780 0.738992 0.013520 0.000000 0.000000 0.000000
-0.872339 0.296158 -0.143862 0.000000 0.000000 0.000000
-1.096080 0.484754 -0.093720 0.000000 0.000000 0.000000
-0.831299 0.385914 -0.212317 0.000000 0.000000 0.000000
-1.105170 0.523522 -0.075619 0.000000 0.000000 0.000000
-1.096960 0.503486 -0.025743 0.000000 0.000000 0.000000
-1.095760 0.486631 -0.093683 0.000000 0.000000 0.000000
-1.103340 0.449102 -0.024843 0.000000 0.000000 0.000000
-1.099590 0.440153 -0.045417 0.000000 0.000000 0.000000
-0.903155 0.640145 0.021298 0.000000 0.000000 0.000000
-0.746100 0.316747 -0.117692 0.000000 0.000000 0.000000
-0.633763 0.355321 0.035218 0.000000 0.000000 0.000000
-0.649826 0.502724 0.053370 0.000000 0.000000 0.000000
-0.814618 0.804122 -0.022453 0.000000 0.000000 0.000000
-0.714611 0.352107 0.044939 0.000000 0.000000 0.000000
-0.741977 0.343372 -0.012504 0.000000 0.000000 0.000000
-0.913732 0.582679 0.036597 0.000000 0.000000 0.000000
-1.096680 0.523991 -0.023300 0.000000 0.000000 0.000000
-0.869981 0.556893 0.040639 0.000000 0.000000 0.000000
-0.960039 0.858225 -0.035453 0.000000 0.000000 0.000000
-0.846100 0.560843 0.039571 0.000000 0.000000 0.000000
-0.937644 0.586473 0.034674 0.000000 0.000000 0.000000
-1.100480 0.932825 -0.174384 0.000000 0.000000 0.000000
-0.928348 0.623897 0.025360 0.000000 0.000000 0.000000
-1.097580 0.648689 -0.052273 0.000000 0.000000 0.000000
-1.076900 0.957130 -0.132606 0.000000 0.000000 0.000000
-1.097510 0.663225 -0.057207 0.000000 0.000000 0.000000
-1.096310 0.751852 -0.071089 0.000000 0.000000 0.000000
-1.096910 0.979231 -0.120778 0.000000 0.000000 0.000000
-1.089470 0.692694 -0.066603 0.000000 0.000000 0.000000
-0.631173 0.354043 0.023186 0.000000 0.000000 0.000000
-0.803230 0.336503 -0.023690 0.000000 0.000000 0.000000
-1.097280 0.543474 -0.063718 0.000000 0.000000 0.000000
-1.096230 0.562419 -0.077632 0.000000 0.000000 0.000000
-1.095890 0.845581 -0.135221 0.000000 0.000000 0.000000
-1.099120 0.640575 -0.034942 0.000000 0.000000 0.000000
-1.097810 0.636594 -0.054841 0.000000 0.000000 0.000000
-0.238766 0.695765 -0.165747 0.000000 0.000000 0.000000
-0.265996 0.725486 0.104166 0.000000 0.000000 0.000000
-0.261965 0.727379 -0.034482 0.000000 0.000000 0.000000
-0.258802 0.731250 0.086970 0.000000 0.000000 0.000000
-0.232497 0.695156 -0.186125 0.000000 0.000000 0.000000
-0.329475 0.889051 -0.079959 0.000000 0.000000 0.000000
-0.243872 0.744608 -0.231733 0.000000 0.000000 0.000000
-0.260782 0.768100 0.085278 0.000000 0.000000 0.000000
-0.515474 0.947443 -0.062753 0.000000 0.000000 0.000000
-0.502747 0.955578 -0.063163 0.000000 0.000000 0.000000
-0.529907 0.888314 -0.044939 0.000000 0.000000 0.000000
-0.522724 0.880701 -0.044077 0.000000 0.000000 0.000000
-0.295458 1.207490 -0.088746 0.000000 0.000000 0.000000
-0.270067 0.785356 -0.244879 0.000000 0.000000 0.000000
-0.310647 0.709587 0.012800 0.000000 0.000000 0.000000
-0.269247 0.740257 -0.005393 0.000000 0.000000 0.000000
-0.258754 0.771388 -0.040341 0.000000 0.000000 0.000000
-0.259749 0.796218 -0.177720 0.000000 0.000000 0.000000
-0.542264 0.884304 -0.046622 0.000000 0.000000 0.000000
-0.243646 0.700727 -0.212748 0.000000 0.000000 0.000000
-0.261533 0.795081 -0.175926 0.000000 0.000000 0.000000
-0.237522 0.695009 -0.212257 0.000000 0.000000 0.000000
-0.233750 0.750700 -0.199567 0.000000 0.000000 0.000000
-0.233246 0.743506 -0.221707 0.000000 0.000000 0.000000
-0.253439 0.958881 -0.214519 0.000000 0.000000 0.000000
-0.261624 0.944604 -0.166856 0.000000 0.000000 0.000000
-0.248891 0.959188 -0.097582 0.000000 0.000000 0.000000
-0.260691 0.972175 -0.053553 0.000000 0.000000 0.000000
-0.262843 1.059830 -0.066893 0.000000 0.000000 0.000000
-0.259351 1.013550 -0.205813 0.000000 0.000000 0.000000
-0.252253 1.032970 -0.204695 0.000000 0.000000 0.000000
-0.249148 1.032990 -0.206396 0.000000 0.000000 0.000000
-0.269239 0.990115 -0.046241 0.000000 0.000000 0.000000
-0.240023 0.727835 -0.217378 0.000000 0.000000 0.000000
-0.292734 0.823141 -0.233615 0.000000 0.000000 0.000000
-0.235976 0.672570 -0.202080 0.000000 0.000000 0.000000
-0.237408 0.663168 -0.198676 0.000000 0.000000 0.000000
-0.264129 0.721226 -0.065122 0.000000 0.000000 0.000000
-0.234656 0.673511 -0.202080 0.000000 0.000000 0.000000
-0.235123 0.721347 -0.215131 0.000000 0.000000 0.000000
-0.235206 0.676931 -0.169162 0.000000 0.000000 0.000000
-0.297192 0.824206 -0.231772 0.000000 0.000000 0.000000
-0.250458 0.735043 -0.216982 0.000000 0.000000 0.000000
-0.235785 0.677448 -0.164593 0.000000 0.000000 0.000000
-0.240548 0.675294 -0.211212 0.000000 0.000000 0.000000
-0.238372 0.725568 -0.216682 0.000000 0.000000 0.000000
-0.233627 0.749849 -0.199556 0.000000 0.000000 0.000000
-0.248878 1.033260 -0.206941 0.000000 0.000000 0.000000
-0.269089 1.059680 -0.069515 0.000000 0.000000 0.000000
-0.312879 1.058620 -0.097977 0.000000 0.000000 0.000000
-0.258283 1.014660 -0.205494 0.000000 0.000000 0.000000
-0.263291 0.407057 -0.010623 0.000000 0.000000 0.000000
-0.321654 0.706421 0.013972 0.000000 0.000000 0.000000
-0.252189 0.955644 -0.120926 0.000000 0.000000 0.000000
-0.238709 0.841481 0.007768 0.000000 0.000000 0.000000
-0.251999 0.955536 -0.121264 0.000000 0.000000 0.000000
-0.266751 0.778074 0.001790 0.000000 0.000000 0.000000
-0.260956 0.944095 -0.166788 0.000000 0.000000 0.000000
-0.320946 0.954988 -0.078524 0.000000 0.000000 0.000000
-0.609108 1.170400 -0.300643 0.000000 0.000000 0.000000
-0.255551 0.986788 -0.218725 0.000000 0.000000 0.000000
-0.332121 1.048720 -0.310321 0.000000 0.000000 0.000000
-0.258974 0.987594 -0.215297 0.000000 0.000000 0.000000
-0.244889 0.771006 -0.232097 0.000000 0.000000 0.000000
-0.321495 0.832089 -0.240494 0.000000 0.000000 0.000000
-0.300131 0.826175 -0.231599 0.000000 0.000000 0.000000
-0.234072 0.733653 -0.197209 0.000000 0.000000 0.000000
-0.230387 0.693046 -0.212622 0.000000 0.000000 0.000000
-0.233005 0.726575 -0.218642 0.000000 0.000000 0.000000
-0.260215 0.971059 -0.029524 0.000000 0.000000 0.000000
-0.268162 1.020170 -0.231362 0.000000 0.000000 0.000000
-0.256890 0.987228 -0.212101 0.000000 0.000000 0.000000
-0.261033 0.972624 -0.054099 0.000000 0.000000 0.000000
-0.279614 0.978436 -0.051365 0.000000 0.000000 0.000000
-0.260182 1.020140 -0.232575 0.000000 0.000000 0.000000
-0.268069 0.988649 -0.046465 0.000000 0.000000 0.000000
-0.253074 0.959449 -0.213496 0.000000 0.000000 0.000000
-0.360828 0.698285 0.021898 0.000000 0.000000 0.000000
-0.364140 0.691882 0.024414 0.000000 0.000000 0.000000
-0.306150 0.828480 -0.229794 0.000000 0.000000 0.000000
-0.246483 0.771723 -0.231522 0.000000 0.000000 0.000000
-0.251560 0.767403 0.053787 0.000000 0.000000 0.000000
-0.264973 0.707329 0.007039 0.000000 0.000000 0.000000
-0.900374 1.204770 -0.210272 0.000000 0.000000 0.000000
-0.319629 0.827441 -0.245908 0.000000 0.000000 0.000000
-0.255514 0.768721 -0.032483 0.000000 0.000000 0.000000
-0.353937 0.738667 -0.233244 0.000000 0.000000 0.000000
-0.237614 0.727054 -0.195010 0.000000 0.000000 0.000000
-0.319299 0.827948 -0.246056 0.000000 0.000000 0.000000
-0.255081 0.805288 -0.248238 0.000000 0.000000 0.000000
-0.267633 1.012530 -0.288046 0.000000 0.000000 0.000000
-0.248348 0.965708 -0.073526 0.000000 0.000000 0.000000
-0.246691 0.965710 -0.074794 0.000000 0.000000 0.000000
-0.546070 1.039960 -0.085816 0.000000 0.000000 0.000000
-0.853097 1.048030 -0.093463 0.000000 0.000000 0.000000
-0.841184 1.066570 -0.095007 0.000000 0.000000 0.000000
-0.689074 0.887567 -0.050270 0.000000 0.000000 0.000000
-0.857263 1.051180 -0.093124 0.000000 0.000000 0.000000
-0.312957 1.147890 -0.269530 0.000000 0.000000 0.000000
-0.893412 1.211500 -0.151984 0.000000 0.000000 0.000000
-0.443212 1.196360 -0.187567 0.000000 0.000000 0.000000
-0.368688 1.165470 -0.141395 0.000000 0.000000 0.000000
-0.321336 0.850532 -0.174078 0.000000 0.000000 0.000000
-0.362405 0.742012 -0.236278 0.000000 0.000000 0.000000
-0.246097 0.693799 -0.212124 0.000000 0.000000 0.000000
-0.309399 0.815812 -0.250166 0.000000 0.000000 0.000000
-0.443258 1.196570 -0.187868 0.000000 0.000000 0.000000
-0.382214 1.169720 -0.291319 0.000000 0.000000 0.000000
-0.373231 1.130260 -0.328562 0.000000 0.000000 0.000000
-0.443745 1.134680 -0.339172 0.000000 0.000000 0.000000
-0.452695 1.177480 -0.257370 0.000000 0.000000 0.000000
-0.443450 1.196560 -0.187925 0.000000 0.000000 0.000000
-0.351957 1.173660 -0.141602 0.000000 0.000000 0.000000
-0.418953 0.893324 -0.362279 0.000000 0.000000 0.000000
-0.445868 0.784291 -0.318101 0.000000 0.000000 0.000000
-0.340286 0.652868 -0.203814 0.000000 0.000000 0.000000
-0.380026 0.930713 -0.278249 0.000000 0.000000 0.000000
-0.231495 0.614625 -0.186593 0.000000 0.000000 0.000000
-0.309754 1.197690 -0.097014 0.000000 0.000000 0.000000
-0.422228 0.862656 -0.343587 0.000000 0.000000 0.000000
-0.442709 1.197740 -0.188535 0.000000 0.000000 0.000000
-0.439343 1.205600 -0.178955 0.000000 0.000000 0.000000
-0.352628 0.716348 -0.228209 0.000000 0.000000 0.000000
-0.427435 1.133660 -0.338476 0.000000 0.000000 0.000000
-0.422838 0.865640 -0.348852 0.000000 0.000000 0.000000
-0.381441 1.179760 -0.241935 0.000000 0.000000 0.000000
-0.412724 0.902485 -0.354205 0.000000 0.000000 0.000000
-0.201111 0.786050 -0.255145 0.000000 0.000000 0.000000
-0.374680 0.925063 -0.276765 0.000000 0.000000 0.000000
-0.482927 0.803827 -0.326064 0.000000 0.000000 0.000000
-0.524273 0.923925 -0.052097 0.000000 0.000000 0.000000
-0.452982 1.179660 -0.259537 0.000000 0.000000 0.000000
-0.382679 1.181000 -0.097826 0.000000 0.000000 0.000000
-0.375089 1.163640 -0.157196 0.000000 0.000000 0.000000
-0.250145 0.839567 -0.221225 0.000000 0.000000 0.000000
-0.352678 0.738542 0.008954 0.000000 0.000000 0.000000
-0.259236 0.770117 0.106108 0.000000 0.000000 0.000000
-0.287284 0.856817 -0.021527 0.000000 0.000000 0.000000
-0.254734 0.822434 0.001982 0.000000 0.000000 0.000000
-0.316455 0.721015 0.013578 0.000000 0.000000 0.000000
-0.364556 1.138500 -0.276742 0.000000 0.000000 0.000000
-0.307741 1.148760 -0.265501 0.000000 0.000000 0.000000
-0.253837 0.824125 0.003178 0.000000 0.000000 0.000000
-0.234887 0.604355 -0.180715 0.000000 0.000000 0.000000
-0.177805 0.560053 -0.188063 0.000000 0.000000 0.000000
-0.252626 0.768004 0.052521 0.000000 0.000000 0.000000
-0.267784 0.737980 -0.002634 0.000000 0.000000 0.000000
-0.265825 0.406338 -0.022796 0.000000 0.000000 0.000000
-0.264661 0.724357 -0.051948 0.000000 0.000000 0.000000
-0.250809 0.790903 0.045677 0.000000 0.000000 0.000000
-0.231455 0.599670 -0.181665 0.000000 0.000000 0.000000
-0.188465 0.559237 -0.182938 0.000000 0.000000 0.000000
-0.254708 0.793572 0.043246 0.000000 0.000000 0.000000
-0.237280 0.435278 -0.110483 0.000000 0.000000 0.000000
-0.380220 1.216960 -0.032034 0.000000 0.000000 0.000000
-0.899507 1.198460 -0.209604 0.000000 0.000000 0.000000
-0.428264 1.209870 -0.136076 0.000000 0.000000 0.000000
-0.356121 1.181780 -0.095718 0.000000 0.000000 0.000000
-0.384199 1.197090 -0.000612 0.000000 0.000000 0.000000
-0.403156 0.923283 -0.291024 0.000000 0.000000 0.000000
-0.515361 0.943936 -0.062197 0.000000 0.000000 0.000000
-0.513395 0.961800 -0.064289 0.000000 0.000000 0.000000
-0.359776 1.146200 0.013624 0.000000 0.000000 0.000000
-0.906091 1.063720 -0.096841 0.000000 0.000000 0.000000
-0.226355 0.770952 -0.219658 0.000000 0.000000 0.000000
-0.248288 0.765558 0.054738 0.000000 0.000000 0.000000
-0.227536 0.767247 -0.221409 0.000000 0.000000 0.000000
-0.265874 0.810418 -0.186389 0.000000 0.000000 0.000000
-0.307387 0.830192 -0.213813 0.000000 0.000000 0.000000
-0.267048 0.801346 -0.179278 0.000000 0.000000 0.000000
-0.262949 0.812733 -0.053898 0.000000 0.000000 0.000000
-0.262819 1.060120 -0.068302 0.000000 0.000000 0.000000
-0.262470 1.059950 -0.068325 0.000000 0.000000 0.000000
-0.340779 1.061070 -0.314100 0.000000 0.000000 0.000000
-0.250305 0.772497 -0.176752 0.000000 0.000000 0.000000
-0.263997 0.711919 -0.102838 0.000000 0.000000 0.000000
-0.235686 0.643961 -0.203184 0.000000 0.000000 0.000000
-0.267006 0.737570 -0.001617 0.000000 0.000000 0.000000
-0.449164 1.179580 -0.257073 0.000000 0.000000 0.000000
-0.382776 1.177960 -0.125257 0.000000 0.000000 0.000000
-0.255059 1.019970 -0.291679 0.000000 0.000000 0.000000
-0.258673 0.966834 -0.075087 0.000000 0.000000 0.000000
-0.380480 1.183780 -0.230333 0.000000 0.000000 0.000000
-0.331533 0.909252 -0.263758 0.000000 0.000000 0.000000
-0.372950 1.125560 -0.327387 0.000000 0.000000 0.000000
-0.245226 1.158420 -0.279247 0.000000 0.000000 0.000000
-0.389753 1.197150 -0.180213 0.000000 0.000000 0.000000
-0.320020 0.923743 -0.233379 0.000000 0.000000 0.000000
-0.262451 1.059950 -0.066297 0.000000 0.000000 0.000000
-0.401656 0.928714 -0.291756 0.000000 0.000000 0.000000
-0.419002 0.893041 -0.362069 0.000000 0.000000 0.000000
-0.485641 0.857523 -0.342751 0.000000 0.000000 0.000000
-0.257429 0.598206 -0.139259 0.000000 0.000000 0.000000
-0.262241 1.016510 -0.184760 0.000000 0.000000 0.000000
-0.237063 1.035970 -0.202663 0.000000 0.000000 0.000000
-0.255778 0.971720 -0.054614 0.000000 0.000000 0.000000
-0.269677 0.972293 -0.031901 0.000000 0.000000 0.000000
-0.259755 0.972686 -0.055088 0.000000 0.000000 0.000000
-0.256557 0.987915 -0.216918 0.000000 0.000000 0.000000
-0.275486 0.974067 -0.033893 0.000000 0.000000 0.000000
-0.253080 1.029790 -0.210315 0.000000 0.000000 0.000000
-0.270299 0.933933 -0.215643 0.000000 0.000000 0.000000
-0.266924 0.959680 -0.227232 0.000000 0.000000 0.000000
-0.272519 0.960092 -0.225804 0.000000 0.000000 0.000000
-0.251781 0.926345 -0.277503 0.000000 0.000000 0.000000
-0.449607 1.151930 -0.350577 0.000000 0.000000 0.000000
-0.544599 0.782622 -0.012613 0.000000 0.000000 0.000000
-1.126280 1.120950 -0.236725 0.000000 0.000000 0.000000
-0.444613 1.056890 -0.303756 0.000000 0.000000 0.000000
-1.105570 1.110560 -0.321984 0.000000 0.000000 0.000000
-0.512998 0.913369 -0.050515 0.000000 0.000000 0.000000
-0.802949 1.218900 -0.127574 0.000000 0.000000 0.000000
-0.811909 1.207590 -0.144365 0.000000 0.000000 0.000000
-0.562182 1.139290 -0.212583 0.000000 0.000000 0.000000
-0.271493 0.937988 -0.216995 0.000000 0.000000 0.000000
-0.339851 0.653074 -0.203952 0.000000 0.000000 0.000000
-0.369090 1.138580 -0.274400 0.000000 0.000000 0.000000
-0.261932 0.715855 -0.083560 0.000000 0.000000 0.000000
-0.253510 1.060340 -0.307528 0.000000 0.000000 0.000000
-0.378379 1.153890 -0.193499 0.000000 0.000000 0.000000
-0.259374 1.146050 -0.315825 0.000000 0.000000 0.000000
-0.413741 0.901489 -0.353338 0.000000 0.000000 0.000000
-0.375655 0.925914 -0.277576 0.000000 0.000000 0.000000
-0.352478 0.720095 -0.231256 0.000000 0.000000 0.000000
-0.377460 1.155530 -0.187993 0.000000 0.000000 0.000000
-0.301634 1.140070 -0.330038 0.000000 0.000000 0.000000
-0.361452 0.741491 -0.236104 0.000000 0.000000 0.000000
-0.259971 0.790981 -0.128294 0.000000 0.000000 0.000000
-0.232073 0.728670 -0.196430 0.000000 0.000000 0.000000
-0.385540 1.179550 -0.256156 0.000000 0.000000 0.000000
-0.464396 1.142130 -0.346255 0.000000 0.000000 0.000000
-0.383172 1.178420 -0.132437 0.000000 0.000000 0.000000
-0.824671 1.207240 -0.153765 0.000000 0.000000 0.000000
-0.334003 1.218830 -0.019731 0.000000 0.000000 0.000000
-0.309600 1.200500 -0.097122 0.000000 0.000000 0.000000
-0.384978 1.168700 -0.289367 0.000000 0.000000 0.000000
-0.533959 0.986093 -0.070277 0.000000 0.000000 0.000000
-0.278133 1.157600 -0.282712 0.000000 0.000000 0.000000
-0.254765 1.201500 -0.089490 0.000000 0.000000 0.000000
-0.257338 0.832835 -0.214281 0.000000 0.000000 0.000000
-0.281163 1.157150 -0.285016 0.000000 0.000000 0.000000
-0.256198 0.786154 -0.240201 0.000000 0.000000 0.000000
-0.485096 0.801852 -0.323498 0.000000 0.000000 0.000000
-0.495437 0.836326 -0.332555 0.000000 0.000000 0.000000
-0.485311 0.800281 -0.323457 0.000000 0.000000 0.000000
-0.328603 0.826551 -0.238535 0.000000 0.000000 0.000000
-0.347257 0.740923 0.009120 0.000000 0.000000 0.000000
-0.310421 1.197830 -0.097081 0.000000 0.000000 0.000000
-0.236583 0.730303 -0.193088 0.000000 0.000000 0.000000
-0.258401 0.415563 0.055905 0.000000 0.000000 0.000000
-0.667549 0.286247 -0.129960 0.000000 0.000000 0.000000
-0.381650 1.155570 -0.225093 0.000000 0.000000 0.000000
-0.381699 1.152640 -0.245198 0.000000 0.000000 0.000000
-0.381545 1.152690 -0.229004 0.000000 0.000000 0.000000
-0.260314 1.022180 -0.235849 0.000000 0.000000 0.000000
-0.379899 1.158780 -0.225994 0.000000 0.000000 0.000000
-0.262568 1.016270 -0.289110 0.000000 0.000000 0.000000
-0.230251 0.672607 -0.183627 0.000000 0.000000 0.000000
-1.097480 0.553912 -0.105536 0.000000 0.000000 0.000000
-0.731866 0.349371 0.017312 0.000000 0.000000 0.000000
-0.806061 0.349582 0.025163 0.000000 0.000000 0.000000
-0.797888 0.351377 0.028885 0.000000 0.000000 0.000000
-0.861402 0.557194 0.040484 0.000000 0.000000 0.000000
-1.097450 0.354102 0.025287 0.000000 0.000000 0.000000
-1.101770 0.362701 -0.042263 0.000000 0.000000 0.000000
-1.100310 0.365614 -0.043249 0.000000 0.000000 0.000000
-0.769056 0.330996 -0.118272 0.000000 0.000000 0.000000
-0.721295 0.355508 0.019284 0.000000 0.000000 0.000000
-1.109770 0.354037 0.021504 0.000000 0.000000 0.000000
-0.596955 0.322403 -0.115523 0.000000 0.000000 0.000000
-0.586433 0.306063 -0.148924 0.000000 0.000000 0.000000
-0.928307 0.592153 0.035116 0.000000 0.000000 0.000000
-0.851696 0.550951 0.041825 0.000000 0.000000 0.000000
-0.801632 0.353004 0.022359 0.000000 0.000000 0.000000
-0.908793 0.745783 -0.004386 0.000000 0.000000 0.000000
-1.094710 0.359956 0.012640 0.000000 0.000000 0.000000
-0.920001 0.731992 -0.001061 0.000000 0.000000 0.000000
-1.093960 0.351544 0.019003 0.000000 0.000000 0.000000
-0.915622 0.734350 0.000325 0.000000 0.000000 0.000000
-0.912044 0.735918 -0.001124 0.000000 0.000000 0.000000
-0.836551 0.531525 0.047322 0.000000 0.000000 0.000000
-0.922776 0.696642 0.004506 0.000000 0.000000 0.000000
-1.098060 0.583415 -0.025478 0.000000 0.000000 0.000000
-1.098010 0.530136 -0.109971 0.000000 0.000000 0.000000
-0.770907 0.533862 0.047114 0.000000 0.000000 0.000000
-0.766018 0.549697 0.041626 0.000000 0.000000 0.000000
-0.772990 0.529160 0.049393 0.000000 0.000000 0.000000
-0.818173 0.912752 -0.043881 0.000000 0.000000 0.000000
-0.699188 0.546857 0.037462 0.000000 0.000000 0.000000
-0.945617 0.809190 -0.018931 0.000000 0.000000 0.000000
-0.906360 0.815646 -0.017428 0.000000 0.000000 0.000000
-0.811939 0.831582 -0.028794 0.000000 0.000000 0.000000
-0.956191 0.771410 -0.008700 0.000000 0.000000 0.000000
-0.910920 0.661756 0.016951 0.000000 0.000000 0.000000
-0.892331 0.742923 -0.007672 0.000000 0.000000 0.000000
-1.098420 0.500546 -0.013427 0.000000 0.000000 0.000000
-0.921130 0.616335 0.023790 0.000000 0.000000 0.000000
-0.647548 0.407004 -0.209404 0.000000 0.000000 0.000000
-0.531148 0.589565 0.032056 0.000000 0.000000 0.000000
-1.100140 0.579307 -0.024198 0.000000 0.000000 0.000000
-1.095440 0.741651 -0.078403 0.000000 0.000000 0.000000
-1.099360 0.489268 -0.053276 0.000000 0.000000 0.000000
-0.250333 0.752866 -0.089654 0.000000 0.000000 0.000000
-0.248926 0.752238 -0.092873 0.000000 0.000000 0.000000
-0.256463 0.794279 -0.176836 0.000000 0.000000 0.000000
-0.329718 0.709143 0.013910 0.000000 0.000000 0.000000
-0.248088 0.735576 -0.221994 0.000000 0.000000 0.000000
-0.250779 0.791024 -0.242849 0.000000 0.000000 0.000000
-0.249327 0.772602 -0.177588 0.000000 0.000000 0.000000
-0.267054 0.734092 -0.018425 0.000000 0.000000 0.000000
-0.266802 0.756934 -0.003657 0.000000 0.000000 0.000000
-0.251467 0.725609 -0.168747 0.000000 0.000000 0.000000
-0.353622 0.501195 0.072401 0.000000 0.000000 0.000000
-0.254796 0.372872 -0.077777 0.000000 0.000000 0.000000
-0.287003 0.763456 0.003724 0.000000 0.000000 0.000000
-0.259510 0.397527 -0.061134 0.000000 0.000000 0.000000
-0.251716 0.778997 0.058400 0.000000 0.000000 0.000000
-0.251442 0.758490 0.053753 0.000000 0.000000 0.000000
-0.348290 0.662943 0.131944 0.000000 0.000000 0.000000
-0.227120 0.758499 -0.207591 0.000000 0.000000 0.000000
-0.339013 0.637625 0.130049 0.000000 0.000000 0.000000
-0.503121 0.531385 0.047368 0.000000 0.000000 0.000000
-0.549944 0.499011 0.171067 0.000000 0.000000 0.000000
-0.464845 0.608541 0.150969 0.000000 0.000000 0.000000
-0.630868 0.351177 0.022295 0.000000 0.000000 0.000000
-0.406694 0.376471 0.139707 0.000000 0.000000 0.000000
-0.404706 0.372041 0.142386 0.000000 0.000000 0.000000
-0.615735 0.352966 0.078780 0.000000 0.000000 0.000000
-0.638668 0.353151 0.035457 0.000000 0.000000 0.000000
-0.468892 0.631993 0.145016 0.000000 0.000000 0.000000
-0.933322 0.806698 -0.017167 0.000000 0.000000 0.000000
-0.901967 0.707433 0.005376 0.000000 0.000000 0.000000
-0.273016 0.775006 0.104138 0.000000 0.000000 0.000000
-0.267411 0.810484 -0.187103 0.000000 0.000000 0.000000
-0.338053 0.635769 0.117323 0.000000 0.000000 0.000000
-0.269084 0.851091 -0.010178 0.000000 0.000000 0.000000
-0.265729 0.739205 0.102366 0.000000 0.000000 0.000000
-0.349310 0.787896 0.101331 0.000000 0.000000 0.000000
-0.445208 1.199300 -0.179181 0.000000 0.000000 0.000000
-0.544433 0.885906 -0.048726 0.000000 0.000000 0.000000
-0.283910 1.166020 -0.329765 0.000000 0.000000 0.000000
-0.637076 1.184110 -0.247150 0.000000 0.000000 0.000000
-0.261154 0.832974 -0.215919 0.000000 0.000000 0.000000
-0.637178 1.183200 -0.246944 0.000000 0.000000 0.000000
-0.654089 1.210330 -0.143518 0.000000 0.000000 0.000000
-0.251071 0.839328 -0.219572 0.000000 0.000000 0.000000
-0.653415 1.209300 -0.142960 0.000000 0.000000 0.000000
-0.286856 1.147390 -0.297557 0.000000 0.000000 0.000000
-0.572755 1.168910 -0.299508 0.000000 0.000000 0.000000
-0.574234 1.204170 -0.167581 0.000000 0.000000 0.000000
-0.262322 0.792370 -0.139278 0.000000 0.000000 0.000000
-0.287614 0.761332 -0.002643 0.000000 0.000000 0.000000
-0.254496 0.966087 -0.077891 0.000000 0.000000 0.000000
-0.253858 0.955375 -0.123300 0.000000 0.000000 0.000000
-0.358510 1.122280 -0.269029 0.000000 0.000000 0.000000
-0.770707 1.165690 -0.328153 0.000000 0.000000 0.000000
-0.624091 1.061440 -0.092050 0.000000 0.000000 0.000000
-0.711391 1.206990 -0.152594 0.000000 0.000000 0.000000
-0.373213 1.187060 -0.141900 0.000000 0.000000 0.000000
-0.535338 0.650158 0.016335 0.000000 0.000000 0.000000
-0.288848 0.595949 0.035103 0.000000 0.000000 0.000000
-0.364201 0.611689 0.037661 0.000000 0.000000 0.000000
-0.254619 0.524871 -0.134267 0.000000 0.000000 0.000000
-0.617918 0.383127 0.109412 0.000000 0.000000 0.000000
-0.265285 0.738989 -0.004922 0.000000 0.000000 0.000000
-0.343493 0.523302 0.070271 0.000000 0.000000 0.000000
-0.302280 1.143130 -0.331579 0.000000 0.000000 0.000000
-0.448726 1.177680 -0.267543 0.000000 0.000000 0.000000
-0.444618 1.150820 -0.332030 0.000000 0.000000 0.000000
-0.256373 1.052140 -0.304609 0.000000 0.000000 0.000000
-0.634890 1.187060 -0.232610 0.000000 0.000000 0.000000
-0.373489 1.129610 -0.327777 0.000000 0.000000 0.000000
-0.615722 1.182370 -0.256191 0.000000 0.000000 0.000000
-0.381351 1.157020 -0.186168 0.000000 0.000000 0.000000
-0.565682 1.169050 -0.299231 0.000000 0.000000 0.000000
-0.374940 1.133840 -0.268048 0.000000 0.000000 0.000000
-0.450019 1.204400 -0.177180 0.000000 0.000000 0.000000
-0.342874 1.045840 -0.308397 0.000000 0.000000 0.000000
-0.519653 0.996288 -0.066474 0.000000 0.000000 0.000000
-0.379955 1.149430 -0.304201 0.000000 0.000000 0.000000
-0.703233 0.888012 -0.048876 0.000000 0.000000 0.000000
-0.636319 0.815292 -0.030569 0.000000 0.000000 0.000000
-0.640602 0.827108 -0.031140 0.000000 0.000000 0.000000
-0.686432 0.889707 -0.049612 0.000000 0.000000 0.000000
-0.372166 1.170980 -0.128998 0.000000 0.000000 0.000000
-0.256656 1.019050 -0.181996 0.000000 0.000000 0.000000
-0.255647 1.028660 -0.208665 0.000000 0.000000 0.000000
-0.289578 0.935322 -0.211443 0.000000 0.000000 0.000000
-0.256767 1.019950 -0.182297 0.000000 0.000000 0.000000
-0.255227 1.044170 -0.143577 0.000000 0.000000 0.000000
-0.273304 0.939426 -0.219565 0.000000 0.000000 0.000000
-0.231654 0.692950 -0.211378 0.000000 0.000000 0.000000
-0.260208 0.751783 -0.166873 0.000000 0.000000 0.000000
-0.257940 0.794632 -0.175277 0.000000 0.000000 0.000000
-0.284619 0.763880 0.005233 0.000000 0.000000 0.000000
-0.308989 0.831843 -0.207571 0.000000 0.000000 0.000000
-0.325373 0.933465 -0.167877 0.000000 0.000000 0.000000
-0.297042 0.827915 -0.202843 0.000000 0.000000 0.000000
-0.324568 0.917419 -0.253925 0.000000 0.000000 0.000000
-0.251486 1.002440 -0.287876 0.000000 0.000000 0.000000
-0.257482 1.024710 -0.199403 0.000000 0.000000 0.000000
-0.330786 1.141090 -0.263802 0.000000 0.000000 0.000000
-0.247049 1.043250 -0.303617 0.000000 0.000000 0.000000
-0.324200 1.052320 -0.311673 0.000000 0.000000 0.000000
-0.443395 1.143600 -0.329323 0.000000 0.000000 0.000000
-0.391816 1.160260 -0.329108 0.000000 0.000000 0.000000
-0.351182 0.788434 0.102105 0.000000 0.000000 0.000000
-0.354232 0.778291 0.102764 0.000000 0.000000 0.000000
-0.259520 0.850712 -0.000908 0.000000 0.000000 0.000000
-0.269654 0.816117 -0.001780 0.000000 0.000000 0.000000
-0.262700 0.778536 0.075934 0.000000 0.000000 0.000000
-0.288604 0.716581 0.013382 0.000000 0.000000 0.000000
-0.517625 0.784393 -0.017725 0.000000 0.000000 0.000000
-0.343539 0.499175 0.091313 0.000000 0.000000 0.000000
-0.337431 0.960427 -0.046582 0.000000 0.000000 0.000000
-0.637322 1.184020 -0.247803 0.000000 0.000000 0.000000
-0.454095 1.176200 -0.260281 0.000000 0.000000 0.000000
-0.257344 0.766970 0.119173 0.000000 0.000000 0.000000
-0.264595 0.649881 0.133247 0.000000 0.000000 0.000000
-0.231094 0.725984 0.070140 0.000000 0.000000 0.000000
-0.661381 0.356496 0.018672 0.000000 0.000000 0.000000
-0.343944 0.370251 0.102558 0.000000 0.000000 0.000000
-0.631404 0.353455 0.023579 0.000000 0.000000 0.000000
-0.361294 0.689380 0.025739 0.000000 0.000000 0.000000
-0.259943 0.470819 -0.115416 0.000000 0.000000 0.000000
-0.279747 0.593338 0.035722 0.000000 0.000000 0.000000
-0.260201 0.396740 -0.040003 0.000000 0.000000 0.000000
-0.232899 0.325099 -0.093375 0.000000 0.000000 0.000000
-0.352013 0.509610 0.079174 0.000000 0.000000 0.000000
-0.346450 0.523264 0.098085 0.000000 0.000000 0.000000
-0.359710 0.687886 0.026353 0.000000 0.000000 0.000000
-0.541417 0.773067 -0.018317 0.000000 0.000000 0.000000
-0.259321 0.766446 -0.034274 0.000000 0.000000 0.000000
-0.268668 0.705993 0.005999 0.000000 0.000000 0.000000
-0.252620 0.463904 -0.114199 0.000000 0.000000 0.000000
-0.259606 0.777210 0.077964 0.000000 0.000000 0.000000
-0.383940 0.563324 0.101742 0.000000 0.000000 0.000000
-0.212627 0.662859 -0.136072 0.000000 0.000000 0.000000
-0.263973 0.736231 -0.006236 0.000000 0.000000 0.000000
-0.242287 0.745054 0.113547 0.000000 0.000000 0.000000
-0.549073 0.502247 0.168172 0.000000 0.000000 0.000000
-0.535718 0.461028 0.177629 0.000000 0.000000 0.000000
-0.513855 0.556028 0.040150 0.000000 0.000000 0.000000
-0.362704 0.679784 0.026835 0.000000 0.000000 0.000000
-0.547756 0.520862 0.159280 0.000000 0.000000 0.000000
-0.556079 0.508734 0.161537 0.000000 0.000000 0.000000
-0.882727 0.310552 -0.009489 0.000000 0.000000 0.000000
