0.250147 1.937410 -0.562799 0.000000 0.000000 0.000000
0.254127 2.013060 -0.318994 0.000000 0.000000 0.000000
0.277160 2.014990 -0.347063 0.000000 0.000000 0.000000
0.160867 1.539640 -0.087674 0.000000 0.000000 0.000000
0.984100 1.785310 -0.368253 0.000000 0.000000 0.000000
0.988172 1.754250 -0.447981 0.000000 0.000000 0.000000
0.989625 1.759360 -0.447921 0.000000 0.000000 0.000000
0.198800 1.408710 -0.170231 0.000000 0.000000 0.000000
0.175264 1.389410 -0.193787 0.000000 0.000000 0.000000
-0.284036 1.168710 -0.331339 0.000000 0.000000 0.000000
0.651483 2.105070 -0.404557 0.000000 0.000000 0.000000
0.081867 2.014990 -0.628557 0.000000 0.000000 0.000000
0.038800 2.117300 -0.679406 0.000000 0.000000 0.000000
0.023221 1.912570 -0.583900 0.000000 0.000000 0.000000
0.293003 2.020560 -0.298847 0.000000 0.000000 0.000000
0.505402 2.206410 -0.264934 0.000000 0.000000 0.000000
0.355468 1.772000 -0.220812 0.000000 0.000000 0.000000
0.568151 2.214540 -0.326703 0.000000 0.000000 0.000000
0.577331 2.110170 -0.247285 0.000000 0.000000 0.000000
0.497687 2.197780 -0.262576 0.000000 0.000000 0.000000
0.530789 2.182120 -0.278954 0.000000 0.000000 0.000000
0.350387 2.090470 -0.263857 0.000000 0.000000 0.000000
0.556048 2.077640 -0.250440 0.000000 0.000000 0.000000
0.386614 2.151400 -0.265054 0.000000 0.000000 0.000000
0.296133 2.052290 -0.222674 0.000000 0.000000 0.000000
0.172537 1.330470 -0.119333 0.000000 0.000000 0.000000
0.137410 1.372170 -0.126643 0.000000 0.000000 0.000000
0.231311 1.387340 -0.143893 0.000000 0.000000 0.000000
0.229535 1.386390 -0.143763 0.000000 0.000000 0.000000
0.201110 1.413380 -0.088382 0.000000 0.000000 0.000000
0.177880 1.393860 -0.124352 0.000000 0.000000 0.000000
0.215752 1.393610 -0.135268 0.000000 0.000000 0.000000
0.621723 1.516060 -0.370991 0.000000 0.000000 0.000000
0.381715 1.525700 -0.129154 0.000000 0.000000 0.000000
0.037940 2.004130 -0.621605 0.000000 0.000000 0.000000
-0.138718 1.934990 -0.577183 0.000000 0.000000 0.000000
-0.135517 1.930220 -0.576648 0.000000 0.000000 0.000000
-0.288275 1.968010 -0.345328 0.000000 0.000000 0.000000
-0.288626 1.936800 -0.515716 0.000000 0.000000 0.000000
-0.248518 2.094750 -0.235589 0.000000 0.000000 0.000000
0.252105 1.443070 -0.174804 0.000000 0.000000 0.000000
-0.253948 1.754960 -0.300987 0.000000 0.000000 0.000000
0.256738 1.730330 -0.124461 0.000000 0.000000 0.000000
0.164665 1.373310 -0.116418 0.000000 0.000000 0.000000
0.248552 2.029000 -0.242774 0.000000 0.000000 0.000000
0.288887 2.014910 -0.318193 0.000000 0.000000 0.000000
0.166796 1.517830 -0.129218 0.000000 0.000000 0.000000
0.244444 2.002840 -0.331243 0.000000 0.000000 0.000000
0.061767 2.170000 -0.236070 0.000000 0.000000 0.000000
-0.132155 1.913580 -0.596367 0.000000 0.000000 0.000000
-0.035622 2.024820 -0.190118 0.000000 0.000000 0.000000
0.064384 2.189240 -0.238359 0.000000 0.000000 0.000000
-0.245279 2.080300 -0.230519 0.000000 0.000000 0.000000
-0.282740 2.009880 -0.220407 0.000000 0.000000 0.000000
-0.267751 1.969500 -0.367883 0.000000 0.000000 0.000000
-0.054771 1.988950 -0.185583 0.000000 0.000000 0.000000
0.257846 1.979560 -0.531702 0.000000 0.000000 0.000000
-0.267336 1.942940 -0.473224 0.000000 0.000000 0.000000
0.564785 1.407240 -0.440389 0.000000 0.000000 0.000000
0.745133 1.256980 -0.438902 0.000000 0.000000 0.000000
0.535845 1.389230 -0.442429 0.000000 0.000000 0.000000
0.724058 1.380540 -0.032225 0.000000 0.000000 0.000000
0.507663 1.398500 -0.430722 0.000000 0.000000 0.000000
0.878057 1.426850 -0.134576 0.000000 0.000000 0.000000
0.505096 1.387590 -0.431078 0.000000 0.000000 0.000000
0.505776 1.383250 -0.432931 0.000000 0.000000 0.000000
0.884138 1.881990 -0.157955 0.000000 0.000000 0.000000
0.154360 2.047070 -0.680738 0.000000 0.000000 0.000000
0.256141 1.446460 -0.161270 0.000000 0.000000 0.000000
0.181630 1.789250 -0.151115 0.000000 0.000000 0.000000
0.245993 2.020810 -0.259883 0.000000 0.000000 0.000000
-0.201544 2.157230 -0.233956 0.000000 0.000000 0.000000
-0.273220 1.982940 -0.282983 0.000000 0.000000 0.000000
0.018563 1.938520 -0.176927 0.000000 0.000000 0.000000
-0.255963 1.557950 -0.155979 0.000000 0.000000 0.000000
-0.257497 1.587840 -0.163355 0.000000 0.000000 0.000000
-0.258625 1.994000 -0.566162 0.000000 0.000000 0.000000
-0.260311 1.622400 -0.343970 0.000000 0.000000 0.000000
-0.245220 1.624480 -0.382002 0.000000 0.000000 0.000000
0.223083 1.381780 -0.143638 0.000000 0.000000 0.000000
0.588968 2.037030 -0.624886 0.000000 0.000000 0.000000
0.584903 2.049420 -0.525264 0.000000 0.000000 0.000000
0.573071 2.024970 -0.595968 0.000000 0.000000 0.000000
0.558823 2.086820 -0.627721 0.000000 0.000000 0.000000
0.161829 1.544040 -0.098543 0.000000 0.000000 0.000000
0.228395 1.385790 -0.143769 0.000000 0.000000 0.000000
0.526722 2.180150 -0.276733 0.000000 0.000000 0.000000
0.567880 2.027430 -0.532777 0.000000 0.000000 0.000000
0.607759 2.028080 -0.586702 0.000000 0.000000 0.000000
0.259285 1.445490 -0.189507 0.000000 0.000000 0.000000
0.637491 2.018650 -0.623083 0.000000 0.000000 0.000000
0.664062 2.061240 -0.446720 0.000000 0.000000 0.000000
0.582516 2.028610 -0.576439 0.000000 0.000000 0.000000
0.167363 1.451640 -0.154355 0.000000 0.000000 0.000000
-0.250720 2.026310 -0.447687 0.000000 0.000000 0.000000
-0.255118 2.037990 -0.451558 0.000000 0.000000 0.000000
-0.072046 1.896090 -0.568967 0.000000 0.000000 0.000000
-0.259633 2.017790 -0.223636 0.000000 0.000000 0.000000
-0.031171 1.897640 -0.573507 0.000000 0.000000 0.000000
-0.023253 1.644160 -0.102657 0.000000 0.000000 0.000000
-0.249629 1.768300 -0.214516 0.000000 0.000000 0.000000
0.633542 1.662600 -0.302327 0.000000 0.000000 0.000000
1.045340 1.768710 -0.443188 0.000000 0.000000 0.000000
0.210483 1.376070 -0.143120 0.000000 0.000000 0.000000
0.118075 1.317500 -0.116611 0.000000 0.000000 0.000000
0.911445 1.806940 -0.449798 0.000000 0.000000 0.000000
0.679908 1.969860 -0.488005 0.000000 0.000000 0.000000
1.011750 1.784390 -0.316568 0.000000 0.000000 0.000000
0.189583 1.379440 -0.134151 0.000000 0.000000 0.000000
0.170279 1.335160 -0.105341 0.000000 0.000000 0.000000
0.158965 1.329820 -0.107951 0.000000 0.000000 0.000000
0.121997 1.929620 -0.598868 0.000000 0.000000 0.000000
0.156409 1.942470 -0.614669 0.000000 0.000000 0.000000
0.165563 1.559060 -0.087934 0.000000 0.000000 0.000000
0.162094 1.476230 -0.062218 0.000000 0.000000 0.000000
0.274668 2.009440 -0.346749 0.000000 0.000000 0.000000
-0.275309 2.012230 -0.212811 0.000000 0.000000 0.000000
-0.247069 2.090690 -0.264971 0.000000 0.000000 0.000000
-0.005809 1.885050 -0.613298 0.000000 0.000000 0.000000
-0.159351 2.176210 -0.238331 0.000000 0.000000 0.000000
-0.068414 1.945240 -0.581089 0.000000 0.000000 0.000000
-0.067653 1.936080 -0.577546 0.000000 0.000000 0.000000
-0.056205 1.894270 -0.607030 0.000000 0.000000 0.000000
0.789109 1.620690 -0.521830 0.000000 0.000000 0.000000
0.281149 2.012980 -0.301628 0.000000 0.000000 0.000000
0.260012 2.010910 -0.314493 0.000000 0.000000 0.000000
0.277232 2.005580 -0.329202 0.000000 0.000000 0.000000
0.320698 2.030210 -0.278248 0.000000 0.000000 0.000000
0.323157 2.037320 -0.285346 0.000000 0.000000 0.000000
0.998015 1.745450 -0.432207 0.000000 0.000000 0.000000
0.190014 1.337680 -0.132770 0.000000 0.000000 0.000000
-0.131152 1.912720 -0.597965 0.000000 0.000000 0.000000
-0.171148 2.005450 -0.192793 0.000000 0.000000 0.000000
0.254825 2.010890 -0.293041 0.000000 0.000000 0.000000
0.064432 2.168760 -0.234728 0.000000 0.000000 0.000000
0.193681 1.406390 -0.123804 0.000000 0.000000 0.000000
0.208292 1.347610 -0.132448 0.000000 0.000000 0.000000
0.266800 1.450750 -0.192741 0.000000 0.000000 0.000000
0.151163 1.339930 -0.029404 0.000000 0.000000 0.000000
0.145210 1.369420 -0.124293 0.000000 0.000000 0.000000
-0.293601 1.968310 -0.347544 0.000000 0.000000 0.000000
-0.281506 1.945710 -0.459392 0.000000 0.000000 0.000000
-0.270977 2.129520 -0.242815 0.000000 0.000000 0.000000
0.150561 1.919860 -0.600206 0.000000 0.000000 0.000000
0.080155 2.011070 -0.628413 0.000000 0.000000 0.000000
0.131874 1.933300 -0.528222 0.000000 0.000000 0.000000
0.137029 1.944400 -0.587247 0.000000 0.000000 0.000000
0.103724 1.921930 -0.579872 0.000000 0.000000 0.000000
0.119826 1.912530 -0.588974 0.000000 0.000000 0.000000
0.064955 1.923830 -0.585575 0.000000 0.000000 0.000000
0.021620 1.883120 -0.614184 0.000000 0.000000 0.000000
-0.027097 1.926380 -0.586247 0.000000 0.000000 0.000000
0.176142 1.397660 -0.126771 0.000000 0.000000 0.000000
0.177313 1.380700 -0.125387 0.000000 0.000000 0.000000
0.072512 1.896320 -0.571058 0.000000 0.000000 0.000000
0.158910 2.076160 -0.697620 0.000000 0.000000 0.000000
0.164331 1.555340 -0.086334 0.000000 0.000000 0.000000
-0.092246 1.989290 -0.193521 0.000000 0.000000 0.000000
0.119944 1.551860 -0.076857 0.000000 0.000000 0.000000
-0.032729 1.880630 -0.604071 0.000000 0.000000 0.000000
0.209322 1.392700 -0.136644 0.000000 0.000000 0.000000
0.257584 1.475990 -0.074878 0.000000 0.000000 0.000000
0.186399 1.403610 -0.126123 0.000000 0.000000 0.000000
0.246798 1.451950 -0.115144 0.000000 0.000000 0.000000
0.306330 2.055100 -0.229381 0.000000 0.000000 0.000000
0.111597 1.626500 -0.099667 0.000000 0.000000 0.000000
-0.134175 1.923040 -0.601818 0.000000 0.000000 0.000000
-0.257559 1.982550 -0.576277 0.000000 0.000000 0.000000
0.168280 1.385290 -0.123956 0.000000 0.000000 0.000000
0.082199 1.825760 -0.148790 0.000000 0.000000 0.000000
0.160749 1.549620 -0.084929 0.000000 0.000000 0.000000
0.162250 1.387130 -0.116745 0.000000 0.000000 0.000000
0.240338 2.017950 -0.269546 0.000000 0.000000 0.000000
0.268952 2.029560 -0.319276 0.000000 0.000000 0.000000
0.224186 1.930400 -0.586383 0.000000 0.000000 0.000000
0.257914 2.024140 -0.304612 0.000000 0.000000 0.000000
0.234198 2.012040 -0.260849 0.000000 0.000000 0.000000
0.287724 2.013420 -0.318657 0.000000 0.000000 0.000000
0.168087 1.346130 -0.106305 0.000000 0.000000 0.000000
0.523554 2.190590 -0.272963 0.000000 0.000000 0.000000
0.180748 1.361600 -0.117115 0.000000 0.000000 0.000000
0.570971 2.125740 -0.225841 0.000000 0.000000 0.000000
0.214809 1.956810 -0.448805 0.000000 0.000000 0.000000
0.215081 1.945030 -0.383505 0.000000 0.000000 0.000000
0.258111 1.978920 -0.531781 0.000000 0.000000 0.000000
0.258716 2.014190 -0.459524 0.000000 0.000000 0.000000
0.258007 2.010870 -0.458902 0.000000 0.000000 0.000000
0.258713 1.419280 -0.295344 0.000000 0.000000 0.000000
0.186336 1.411860 -0.074903 0.000000 0.000000 0.000000
0.237247 1.442740 -0.079601 0.000000 0.000000 0.000000
0.183611 1.412410 -0.073703 0.000000 0.000000 0.000000
0.163350 1.498560 -0.126244 0.000000 0.000000 0.000000
0.166368 1.326880 -0.117240 0.000000 0.000000 0.000000
0.194816 1.405370 -0.179531 0.000000 0.000000 0.000000
0.141689 1.379720 -0.125093 0.000000 0.000000 0.000000
0.184543 1.353880 -0.056504 0.000000 0.000000 0.000000
0.155614 1.251810 -0.082786 0.000000 0.000000 0.000000
0.136369 1.924430 -0.593252 0.000000 0.000000 0.000000
0.161729 1.352570 -0.124885 0.000000 0.000000 0.000000
0.036444 2.007050 -0.619469 0.000000 0.000000 0.000000
0.075158 1.676840 -0.103276 0.000000 0.000000 0.000000
0.175859 1.333900 -0.112431 0.000000 0.000000 0.000000
0.724571 1.698630 -0.410479 0.000000 0.000000 0.000000
0.255116 2.012170 -0.416096 0.000000 0.000000 0.000000
-0.025384 1.791860 -0.176202 0.000000 0.000000 0.000000
0.000344 2.242520 -0.260412 0.000000 0.000000 0.000000
0.212029 1.395310 -0.136174 0.000000 0.000000 0.000000
0.263945 1.955200 -0.300299 0.000000 0.000000 0.000000
0.750833 2.108780 -0.434547 0.000000 0.000000 0.000000
0.166923 1.397600 -0.125126 0.000000 0.000000 0.000000
0.211433 1.364690 -0.060058 0.000000 0.000000 0.000000
0.039018 2.206770 -0.251130 0.000000 0.000000 0.000000
0.148374 1.919920 -0.597412 0.000000 0.000000 0.000000
0.054355 1.984510 -0.614930 0.000000 0.000000 0.000000
0.153560 1.922450 -0.602821 0.000000 0.000000 0.000000
0.054964 2.088610 -0.669255 0.000000 0.000000 0.000000
0.168540 1.385550 -0.123526 0.000000 0.000000 0.000000
0.180749 1.892680 -0.584195 0.000000 0.000000 0.000000
0.344673 2.086010 -0.260778 0.000000 0.000000 0.000000
0.157029 1.321610 -0.113186 0.000000 0.000000 0.000000
0.193947 1.970660 -0.369881 0.000000 0.000000 0.000000
0.162275 1.357050 -0.099157 0.000000 0.000000 0.000000
0.295276 2.017330 -0.337458 0.000000 0.000000 0.000000
0.163827 1.355080 -0.102788 0.000000 0.000000 0.000000
0.297242 2.045250 -0.216525 0.000000 0.000000 0.000000
0.166028 1.462580 -0.054493 0.000000 0.000000 0.000000
0.168159 1.345470 -0.105890 0.000000 0.000000 0.000000
0.243515 2.035750 -0.231899 0.000000 0.000000 0.000000
0.130572 1.926650 -0.563452 0.000000 0.000000 0.000000
0.123173 2.029540 -0.232123 0.000000 0.000000 0.000000
0.097645 1.928170 -0.578685 0.000000 0.000000 0.000000
-0.024299 1.982530 -0.195700 0.000000 0.000000 0.000000
0.156778 1.321360 -0.113371 0.000000 0.000000 0.000000
0.324903 2.035880 -0.276708 0.000000 0.000000 0.000000
0.280293 2.010680 -0.299933 0.000000 0.000000 0.000000
0.254708 1.925570 -0.576058 0.000000 0.000000 0.000000
0.161255 1.361670 -0.084021 0.000000 0.000000 0.000000
0.243675 1.920520 -0.588134 0.000000 0.000000 0.000000
0.224194 1.918180 -0.574100 0.000000 0.000000 0.000000
0.265536 1.449660 -0.190332 0.000000 0.000000 0.000000
0.737864 2.075590 -0.525293 0.000000 0.000000 0.000000
0.742171 2.082610 -0.524955 0.000000 0.000000 0.000000
0.639774 1.982870 -0.468814 0.000000 0.000000 0.000000
0.556345 1.898170 -0.455852 0.000000 0.000000 0.000000
0.603340 2.037660 -0.591344 0.000000 0.000000 0.000000
0.551058 2.184880 -0.356757 0.000000 0.000000 0.000000
0.159870 1.339930 -0.055261 0.000000 0.000000 0.000000
0.188898 1.357370 -0.049896 0.000000 0.000000 0.000000
0.554852 2.082350 -0.623572 0.000000 0.000000 0.000000
0.164255 1.508560 -0.127197 0.000000 0.000000 0.000000
0.260370 2.022330 -0.363837 0.000000 0.000000 0.000000
0.232511 1.700520 -0.127042 0.000000 0.000000 0.000000
0.212680 1.395530 -0.136372 0.000000 0.000000 0.000000
0.250244 2.010500 -0.351044 0.000000 0.000000 0.000000
0.203159 1.903260 -0.170107 0.000000 0.000000 0.000000
0.242699 1.935890 -0.532694 0.000000 0.000000 0.000000
0.112583 1.630810 -0.099933 0.000000 0.000000 0.000000
0.246404 1.937490 -0.551234 0.000000 0.000000 0.000000
0.277530 2.015470 -0.347118 0.000000 0.000000 0.000000
0.149535 1.496480 -0.063395 0.000000 0.000000 0.000000
0.168027 1.471900 -0.073683 0.000000 0.000000 0.000000
-0.258392 2.005710 -0.221285 0.000000 0.000000 0.000000
-0.173990 2.064090 -0.196882 0.000000 0.000000 0.000000
-0.095154 1.943200 -0.580148 0.000000 0.000000 0.000000
-0.155953 1.912020 -0.579904 0.000000 0.000000 0.000000
-0.292951 1.965380 -0.347244 0.000000 0.000000 0.000000
-0.254371 1.754000 -0.300940 0.000000 0.000000 0.000000
-0.266896 1.948960 -0.492018 0.000000 0.000000 0.000000
-0.279118 1.934780 -0.483950 0.000000 0.000000 0.000000
-0.261219 1.919470 -0.599409 0.000000 0.000000 0.000000
0.117756 1.850880 -0.158478 0.000000 0.000000 0.000000
0.257962 2.012740 -0.289782 0.000000 0.000000 0.000000
0.164355 1.362080 -0.112208 0.000000 0.000000 0.000000
0.164079 1.373070 -0.116634 0.000000 0.000000 0.000000
0.163945 1.515750 -0.120646 0.000000 0.000000 0.000000
0.237087 2.023340 -0.236890 0.000000 0.000000 0.000000
0.159564 1.363740 -0.099316 0.000000 0.000000 0.000000
0.233853 2.026060 -0.219900 0.000000 0.000000 0.000000
0.248838 2.024590 -0.335126 0.000000 0.000000 0.000000
0.278018 2.018440 -0.356465 0.000000 0.000000 0.000000
0.258192 2.012380 -0.337152 0.000000 0.000000 0.000000
0.273148 2.016830 -0.337437 0.000000 0.000000 0.000000
0.295231 2.012550 -0.294489 0.000000 0.000000 0.000000
0.253354 2.012420 -0.304373 0.000000 0.000000 0.000000
0.161623 1.361380 -0.082926 0.000000 0.000000 0.000000
0.164608 1.362580 -0.112533 0.000000 0.000000 0.000000
-0.247665 1.691660 -0.355468 0.000000 0.000000 0.000000
-0.284499 1.955930 -0.358172 0.000000 0.000000 0.000000
-0.086262 1.862080 -0.155153 0.000000 0.000000 0.000000
0.062408 2.130660 -0.228387 0.000000 0.000000 0.000000
0.119123 2.029450 -0.203590 0.000000 0.000000 0.000000
0.255432 2.033570 -0.222567 0.000000 0.000000 0.000000
0.001167 2.134550 -0.616955 0.000000 0.000000 0.000000
0.324449 2.031960 -0.276569 0.000000 0.000000 0.000000
0.268254 2.023240 -0.356928 0.000000 0.000000 0.000000
-0.033447 1.878730 -0.603581 0.000000 0.000000 0.000000
0.012309 1.911460 -0.584375 0.000000 0.000000 0.000000
0.269156 1.395230 -0.423968 0.000000 0.000000 0.000000
0.159227 1.363190 -0.085347 0.000000 0.000000 0.000000
0.088965 1.304930 -0.139575 0.000000 0.000000 0.000000
1.107210 1.813070 -0.317976 0.000000 0.000000 0.000000
0.962307 1.424890 -0.102229 0.000000 0.000000 0.000000
1.119880 1.600900 -0.342734 0.000000 0.000000 0.000000
0.994153 1.505930 -0.387719 0.000000 0.000000 0.000000
0.972802 1.467600 -0.306023 0.000000 0.000000 0.000000
0.976712 1.459720 -0.286739 0.000000 0.000000 0.000000
0.975355 1.394120 -0.345533 0.000000 0.000000 0.000000
0.980184 1.382710 -0.195003 0.000000 0.000000 0.000000
0.986779 1.859590 -0.378115 0.000000 0.000000 0.000000
0.982162 1.931830 -0.462749 0.000000 0.000000 0.000000
0.982528 1.994450 -0.392024 0.000000 0.000000 0.000000
0.559485 2.191470 -0.367978 0.000000 0.000000 0.000000
0.992795 1.831970 -0.145636 0.000000 0.000000 0.000000
1.108410 1.813150 -0.150791 0.000000 0.000000 0.000000
-0.139802 1.903570 -0.591012 0.000000 0.000000 0.000000
0.249484 2.012880 -0.297829 0.000000 0.000000 0.000000
0.164242 1.546930 -0.095885 0.000000 0.000000 0.000000
0.174964 1.355270 -0.118161 0.000000 0.000000 0.000000
0.578911 2.056450 -0.483134 0.000000 0.000000 0.000000
0.174214 1.354710 -0.117864 0.000000 0.000000 0.000000
0.597406 2.021010 -0.585287 0.000000 0.000000 0.000000
0.578807 2.017410 -0.580026 0.000000 0.000000 0.000000
0.179316 1.491150 -0.060999 0.000000 0.000000 0.000000
0.298443 2.022560 -0.296761 0.000000 0.000000 0.000000
0.267851 2.005210 -0.319372 0.000000 0.000000 0.000000
0.270820 2.012580 -0.335598 0.000000 0.000000 0.000000
0.287051 2.036000 -0.216652 0.000000 0.000000 0.000000
0.329394 2.044170 -0.278958 0.000000 0.000000 0.000000
0.274384 2.037480 -0.215116 0.000000 0.000000 0.000000
-0.263552 2.033900 -0.228839 0.000000 0.000000 0.000000
-0.280858 1.940560 -0.513865 0.000000 0.000000 0.000000
-0.265393 2.000770 -0.287230 0.000000 0.000000 0.000000
-0.290110 1.938100 -0.517315 0.000000 0.000000 0.000000
-0.275573 1.944680 -0.453304 0.000000 0.000000 0.000000
-0.230333 1.338380 -0.356740 0.000000 0.000000 0.000000
-0.238322 1.297430 -0.437212 0.000000 0.000000 0.000000
-0.226235 1.405680 -0.321255 0.000000 0.000000 0.000000
-0.224382 1.452110 -0.396576 0.000000 0.000000 0.000000
-0.216942 1.346480 -0.275347 0.000000 0.000000 0.000000
-0.225167 1.505500 -0.202022 0.000000 0.000000 0.000000
0.171597 1.324850 -0.187043 0.000000 0.000000 0.000000
0.279028 1.448470 -0.462858 0.000000 0.000000 0.000000
0.259833 1.444870 -0.313453 0.000000 0.000000 0.000000
0.330738 1.592970 -0.179950 0.000000 0.000000 0.000000
0.258976 1.454980 -0.334976 0.000000 0.000000 0.000000
-0.569322 1.909080 -0.341193 0.000000 0.000000 0.000000
-0.230413 1.639370 -0.187118 0.000000 0.000000 0.000000
-0.256723 1.932340 -0.528479 0.000000 0.000000 0.000000
-0.226184 1.651650 -0.362435 0.000000 0.000000 0.000000
-0.320506 1.905400 -0.456263 0.000000 0.000000 0.000000
-0.574143 1.904070 -0.283495 0.000000 0.000000 0.000000
0.507707 1.326650 -0.033799 0.000000 0.000000 0.000000
0.270925 1.447200 -0.189790 0.000000 0.000000 0.000000
0.937964 1.355160 -0.171740 0.000000 0.000000 0.000000
0.979798 1.283830 -0.338213 0.000000 0.000000 0.000000
0.978759 1.285830 -0.336989 0.000000 0.000000 0.000000
0.914446 1.355430 -0.147388 0.000000 0.000000 0.000000
0.269331 1.520970 -0.224933 0.000000 0.000000 0.000000
-0.224908 1.301620 -0.341650 0.000000 0.000000 0.000000
-0.221491 1.474680 -0.082050 0.000000 0.000000 0.000000
-0.223220 1.365040 -0.454350 0.000000 0.000000 0.000000
-0.227979 1.466270 -0.070344 0.000000 0.000000 0.000000
0.171224 1.440230 -0.195352 0.000000 0.000000 0.000000
-0.248016 1.695630 -0.447273 0.000000 0.000000 0.000000
0.865405 2.095550 -0.465098 0.000000 0.000000 0.000000
0.983489 1.945970 -0.416186 0.000000 0.000000 0.000000
1.007080 1.826820 -0.157545 0.000000 0.000000 0.000000
0.975861 1.934440 -0.432878 0.000000 0.000000 0.000000
0.887149 1.434580 -0.180426 0.000000 0.000000 0.000000
0.743903 1.644640 -0.098864 0.000000 0.000000 0.000000
0.878169 1.354920 -0.031948 0.000000 0.000000 0.000000
0.871838 1.356380 -0.047208 0.000000 0.000000 0.000000
0.979540 1.550280 -0.092467 0.000000 0.000000 0.000000
0.987503 1.653850 -0.443319 0.000000 0.000000 0.000000
0.881836 1.429520 -0.154662 0.000000 0.000000 0.000000
0.878314 1.417440 -0.175258 0.000000 0.000000 0.000000
0.245724 2.023430 -0.245531 0.000000 0.000000 0.000000
0.235857 1.983120 -0.339205 0.000000 0.000000 0.000000
0.596325 2.021450 -0.591833 0.000000 0.000000 0.000000
0.616092 2.065490 -0.413901 0.000000 0.000000 0.000000
0.243165 2.013080 -0.295887 0.000000 0.000000 0.000000
0.227796 2.021060 -0.220136 0.000000 0.000000 0.000000
-0.252148 1.660160 -0.314283 0.000000 0.000000 0.000000
-0.049719 1.638050 -0.102147 0.000000 0.000000 0.000000
0.316108 1.412540 -0.427167 0.000000 0.000000 0.000000
0.501246 1.380340 -0.429868 0.000000 0.000000 0.000000
0.336043 1.275710 -0.294640 0.000000 0.000000 0.000000
0.374236 1.453660 -0.108802 0.000000 0.000000 0.000000
0.381140 1.416370 -0.464087 0.000000 0.000000 0.000000
0.374934 1.457230 -0.108259 0.000000 0.000000 0.000000
0.337346 1.326250 -0.443130 0.000000 0.000000 0.000000
0.420186 1.308290 -0.438321 0.000000 0.000000 0.000000
0.420370 1.337000 -0.421029 0.000000 0.000000 0.000000
0.976219 1.436730 -0.262761 0.000000 0.000000 0.000000
0.988446 1.635920 -0.434476 0.000000 0.000000 0.000000
0.911296 1.460610 -0.057874 0.000000 0.000000 0.000000
0.974920 1.430100 -0.315504 0.000000 0.000000 0.000000
0.989730 1.503120 -0.395323 0.000000 0.000000 0.000000
0.879027 1.417330 -0.088618 0.000000 0.000000 0.000000
0.976364 1.319100 -0.278890 0.000000 0.000000 0.000000
0.999822 1.787400 -0.365149 0.000000 0.000000 0.000000
1.120670 1.666960 -0.422942 0.000000 0.000000 0.000000
0.214179 1.948060 -0.456679 0.000000 0.000000 0.000000
-0.072633 1.990960 -0.193302 0.000000 0.000000 0.000000
0.113959 1.635000 -0.099131 0.000000 0.000000 0.000000
-0.257257 1.601490 -0.451140 0.000000 0.000000 0.000000
-0.073489 2.180770 -0.240818 0.000000 0.000000 0.000000
0.160577 1.888600 -0.589397 0.000000 0.000000 0.000000
-0.022744 1.642150 -0.102864 0.000000 0.000000 0.000000
0.072712 1.648970 -0.103054 0.000000 0.000000 0.000000
0.260648 2.023960 -0.364725 0.000000 0.000000 0.000000
0.190712 1.393490 -0.127792 0.000000 0.000000 0.000000
0.165274 1.376380 -0.131578 0.000000 0.000000 0.000000
0.984463 1.789320 -0.359450 0.000000 0.000000 0.000000
0.154147 1.536800 -0.096775 0.000000 0.000000 0.000000
0.161890 1.475890 -0.063182 0.000000 0.000000 0.000000
0.611908 2.066860 -0.386889 0.000000 0.000000 0.000000
0.578473 2.045900 -0.525034 0.000000 0.000000 0.000000
0.616886 2.042700 -0.522527 0.000000 0.000000 0.000000
0.579751 2.042470 -0.533694 0.000000 0.000000 0.000000
0.557981 2.085160 -0.625286 0.000000 0.000000 0.000000
0.566338 2.017550 -0.594275 0.000000 0.000000 0.000000
0.238765 1.433650 -0.172691 0.000000 0.000000 0.000000
0.203069 1.968160 -0.378851 0.000000 0.000000 0.000000
0.273768 2.017730 -0.337816 0.000000 0.000000 0.000000
0.279167 2.010890 -0.297186 0.000000 0.000000 0.000000
0.249505 2.026740 -0.240758 0.000000 0.000000 0.000000
0.247094 2.004990 -0.331112 0.000000 0.000000 0.000000
0.894156 2.013220 -0.191117 0.000000 0.000000 0.000000
0.747182 2.033900 -0.551937 0.000000 0.000000 0.000000
0.683645 2.078670 -0.389259 0.000000 0.000000 0.000000
0.988589 1.750120 -0.449307 0.000000 0.000000 0.000000
0.988313 1.684540 -0.448511 0.000000 0.000000 0.000000
1.004500 1.778800 -0.314787 0.000000 0.000000 0.000000
0.986091 1.683530 -0.448649 0.000000 0.000000 0.000000
0.159774 2.069760 -0.693593 0.000000 0.000000 0.000000
0.202101 1.347670 -0.134624 0.000000 0.000000 0.000000
0.576713 2.029160 -0.598993 0.000000 0.000000 0.000000
0.556376 2.085030 -0.627280 0.000000 0.000000 0.000000
0.160810 1.504240 -0.124589 0.000000 0.000000 0.000000
0.575459 2.008610 -0.579591 0.000000 0.000000 0.000000
0.187639 1.334520 -0.134803 0.000000 0.000000 0.000000
0.175718 1.346550 -0.072136 0.000000 0.000000 0.000000
0.169249 1.473990 -0.073620 0.000000 0.000000 0.000000
-0.297144 1.981600 -0.349804 0.000000 0.000000 0.000000
0.021141 1.660450 -0.100257 0.000000 0.000000 0.000000
-0.288323 1.968840 -0.376321 0.000000 0.000000 0.000000
-0.251332 1.783150 -0.205106 0.000000 0.000000 0.000000
-0.261191 1.767510 -0.285718 0.000000 0.000000 0.000000
-0.278308 1.929340 -0.505146 0.000000 0.000000 0.000000
-0.264837 2.010370 -0.209891 0.000000 0.000000 0.000000
-0.263572 1.928010 -0.530766 0.000000 0.000000 0.000000
-0.253361 1.699760 -0.370893 0.000000 0.000000 0.000000
-0.261587 1.726380 -0.483719 0.000000 0.000000 0.000000
0.821862 2.230530 -0.251083 0.000000 0.000000 0.000000
0.746056 2.153770 -0.244620 0.000000 0.000000 0.000000
0.209861 1.396810 -0.131470 0.000000 0.000000 0.000000
0.165988 1.511130 -0.127127 0.000000 0.000000 0.000000
0.247192 1.440190 -0.160984 0.000000 0.000000 0.000000
0.768245 2.147690 -0.349510 0.000000 0.000000 0.000000
0.206336 1.636040 -0.102091 0.000000 0.000000 0.000000
0.228370 1.441170 -0.050441 0.000000 0.000000 0.000000
0.937486 1.784060 -0.455184 0.000000 0.000000 0.000000
0.261604 1.984010 -0.331534 0.000000 0.000000 0.000000
0.245368 1.999660 -0.340844 0.000000 0.000000 0.000000
0.212700 1.950430 -0.454136 0.000000 0.000000 0.000000
0.998433 1.506890 -0.388449 0.000000 0.000000 0.000000
0.984176 1.984010 -0.333326 0.000000 0.000000 0.000000
0.990556 1.643470 -0.119543 0.000000 0.000000 0.000000
0.797945 1.642030 -0.098068 0.000000 0.000000 0.000000
-0.257986 1.645120 -0.282046 0.000000 0.000000 0.000000
-0.254912 1.881310 -0.612255 0.000000 0.000000 0.000000
0.116112 2.017620 -0.616838 0.000000 0.000000 0.000000
-0.253128 1.638410 -0.387922 0.000000 0.000000 0.000000
-0.254875 1.697340 -0.122585 0.000000 0.000000 0.000000
-0.257785 1.697350 -0.138284 0.000000 0.000000 0.000000
-0.265144 1.931850 -0.532668 0.000000 0.000000 0.000000
-0.256277 1.783220 -0.156728 0.000000 0.000000 0.000000
-0.253810 1.710340 -0.406729 0.000000 0.000000 0.000000
-0.256488 1.725370 -0.428454 0.000000 0.000000 0.000000
-0.239224 1.678650 -0.440027 0.000000 0.000000 0.000000
0.162513 1.544330 -0.089286 0.000000 0.000000 0.000000
0.193012 1.966790 -0.370965 0.000000 0.000000 0.000000
0.237746 1.984470 -0.343804 0.000000 0.000000 0.000000
0.276107 1.990700 -0.297889 0.000000 0.000000 0.000000
0.259789 2.019440 -0.338844 0.000000 0.000000 0.000000
0.263318 2.014590 -0.475924 0.000000 0.000000 0.000000
-0.260874 1.992430 -0.286984 0.000000 0.000000 0.000000
-0.248680 2.015870 -0.210967 0.000000 0.000000 0.000000
0.263300 2.007700 -0.477183 0.000000 0.000000 0.000000
0.269698 2.029510 -0.483920 0.000000 0.000000 0.000000
0.247675 2.020570 -0.352678 0.000000 0.000000 0.000000
-0.158288 2.174200 -0.237990 0.000000 0.000000 0.000000
0.018728 1.931960 -0.178058 0.000000 0.000000 0.000000
-0.255736 1.716240 -0.408147 0.000000 0.000000 0.000000
-0.230046 1.605790 -0.440028 0.000000 0.000000 0.000000
-0.400891 1.983830 -0.226593 0.000000 0.000000 0.000000
-0.388012 1.841910 -0.186737 0.000000 0.000000 0.000000
-0.227452 1.690620 -0.354775 0.000000 0.000000 0.000000
-0.252664 1.606940 -0.339168 0.000000 0.000000 0.000000
-0.229858 1.646230 -0.291159 0.000000 0.000000 0.000000
-0.249369 1.703110 -0.365501 0.000000 0.000000 0.000000
-0.359507 1.867350 -0.511842 0.000000 0.000000 0.000000
-0.230994 1.898720 -0.576732 0.000000 0.000000 0.000000
-0.237023 1.751570 -0.478085 0.000000 0.000000 0.000000
-0.228987 1.590890 -0.447089 0.000000 0.000000 0.000000
-0.265670 1.928480 -0.503284 0.000000 0.000000 0.000000
0.120623 2.008450 -0.202367 0.000000 0.000000 0.000000
-0.080124 1.931110 -0.579618 0.000000 0.000000 0.000000
0.528333 2.135020 -0.223255 0.000000 0.000000 0.000000
0.666230 2.055830 -0.204042 0.000000 0.000000 0.000000
0.669652 2.066120 -0.204895 0.000000 0.000000 0.000000
0.972754 1.460200 -0.313925 0.000000 0.000000 0.000000
0.982552 1.642680 -0.098771 0.000000 0.000000 0.000000
0.986798 1.551660 -0.219487 0.000000 0.000000 0.000000
0.726025 1.331410 -0.032922 0.000000 0.000000 0.000000
0.723783 1.378870 -0.030807 0.000000 0.000000 0.000000
0.827622 1.444070 -0.438457 0.000000 0.000000 0.000000
0.989459 1.533480 -0.394464 0.000000 0.000000 0.000000
0.986481 1.787590 -0.366153 0.000000 0.000000 0.000000
0.993605 1.564010 -0.401224 0.000000 0.000000 0.000000
1.016600 1.732140 -0.434295 0.000000 0.000000 0.000000
0.986573 1.631990 -0.449376 0.000000 0.000000 0.000000
0.975660 1.955120 -0.424012 0.000000 0.000000 0.000000
0.294157 1.276360 -0.286266 0.000000 0.000000 0.000000
0.673667 1.402000 -0.441000 0.000000 0.000000 0.000000
0.355328 1.594680 -0.153649 0.000000 0.000000 0.000000
0.262231 1.399690 -0.345995 0.000000 0.000000 0.000000
0.400249 1.360710 -0.435792 0.000000 0.000000 0.000000
0.752850 2.037020 -0.552216 0.000000 0.000000 0.000000
0.843642 2.094480 -0.535027 0.000000 0.000000 0.000000
0.871105 2.120810 -0.247193 0.000000 0.000000 0.000000
0.964291 2.118750 -0.243122 0.000000 0.000000 0.000000
0.888130 2.057810 -0.528763 0.000000 0.000000 0.000000
0.687293 2.121740 -0.241744 0.000000 0.000000 0.000000
0.587647 2.047680 -0.202543 0.000000 0.000000 0.000000
0.853993 2.097460 -0.535546 0.000000 0.000000 0.000000
0.982851 1.968490 -0.471879 0.000000 0.000000 0.000000
0.269879 2.002420 -0.347036 0.000000 0.000000 0.000000
0.259653 2.032530 -0.422077 0.000000 0.000000 0.000000
0.123896 1.953450 -0.488075 0.000000 0.000000 0.000000
0.236408 1.984940 -0.340946 0.000000 0.000000 0.000000
0.134948 1.931460 -0.544841 0.000000 0.000000 0.000000
0.258266 2.016000 -0.363647 0.000000 0.000000 0.000000
0.248674 1.944290 -0.537386 0.000000 0.000000 0.000000
0.887224 1.435020 -0.181135 0.000000 0.000000 0.000000
0.976172 1.447430 -0.112467 0.000000 0.000000 0.000000
0.979039 1.326620 -0.277388 0.000000 0.000000 0.000000
0.975420 1.390760 -0.360403 0.000000 0.000000 0.000000
0.927673 1.430230 -0.135150 0.000000 0.000000 0.000000
0.996645 1.663180 -0.430759 0.000000 0.000000 0.000000
0.986089 1.661820 -0.452714 0.000000 0.000000 0.000000
0.987280 1.641120 -0.452043 0.000000 0.000000 0.000000
0.978615 1.934540 -0.427558 0.000000 0.000000 0.000000
0.978973 1.958540 -0.411901 0.000000 0.000000 0.000000
0.981065 1.956840 -0.423663 0.000000 0.000000 0.000000
0.985964 1.855990 -0.280452 0.000000 0.000000 0.000000
-0.272218 1.949460 -0.404429 0.000000 0.000000 0.000000
-0.047766 1.933390 -0.587829 0.000000 0.000000 0.000000
1.112220 1.644080 -0.168016 0.000000 0.000000 0.000000
1.120680 1.649260 -0.150707 0.000000 0.000000 0.000000
0.757047 1.248390 -0.430828 0.000000 0.000000 0.000000
0.758872 1.240160 -0.431109 0.000000 0.000000 0.000000
0.990804 1.603250 -0.292315 0.000000 0.000000 0.000000
1.120070 1.619730 -0.266268 0.000000 0.000000 0.000000
0.975019 1.399410 -0.297721 0.000000 0.000000 0.000000
0.992239 1.563530 -0.099359 0.000000 0.000000 0.000000
0.988781 1.489940 -0.381199 0.000000 0.000000 0.000000
0.993794 1.548010 -0.382136 0.000000 0.000000 0.000000
-0.258203 1.760760 -0.281932 0.000000 0.000000 0.000000
-0.264997 1.932160 -0.533142 0.000000 0.000000 0.000000
-0.274953 1.996850 -0.244096 0.000000 0.000000 0.000000
0.113562 1.905000 -0.170682 0.000000 0.000000 0.000000
-0.018583 1.810090 -0.147915 0.000000 0.000000 0.000000
-0.262128 1.680010 -0.181011 0.000000 0.000000 0.000000
0.454960 2.048700 -0.192331 0.000000 0.000000 0.000000
0.571880 2.123280 -0.223762 0.000000 0.000000 0.000000
0.761843 2.032610 -0.547942 0.000000 0.000000 0.000000
0.857179 2.128420 -0.429616 0.000000 0.000000 0.000000
0.571532 2.040260 -0.608748 0.000000 0.000000 0.000000
0.857182 2.175140 -0.240814 0.000000 0.000000 0.000000
0.977369 2.125070 -0.241513 0.000000 0.000000 0.000000
0.688789 2.039760 -0.525460 0.000000 0.000000 0.000000
0.454407 2.000580 -0.189020 0.000000 0.000000 0.000000
0.849115 2.105160 -0.498769 0.000000 0.000000 0.000000
0.982705 2.011430 -0.431923 0.000000 0.000000 0.000000
0.688639 2.122620 -0.238085 0.000000 0.000000 0.000000
0.948316 2.014200 -0.621148 0.000000 0.000000 0.000000
0.510647 2.008970 -0.178851 0.000000 0.000000 0.000000
0.486868 2.003430 -0.192241 0.000000 0.000000 0.000000
0.974677 1.399490 -0.298907 0.000000 0.000000 0.000000
0.887468 1.406800 -0.131819 0.000000 0.000000 0.000000
0.976794 1.469430 -0.430384 0.000000 0.000000 0.000000
1.112040 1.644270 -0.169155 0.000000 0.000000 0.000000
0.987235 1.488450 -0.381160 0.000000 0.000000 0.000000
0.978461 1.314010 -0.302781 0.000000 0.000000 0.000000
0.978942 1.341010 -0.187103 0.000000 0.000000 0.000000
0.984274 1.348550 -0.290172 0.000000 0.000000 0.000000
0.973530 1.397990 -0.334637 0.000000 0.000000 0.000000
0.983698 1.334410 -0.180255 0.000000 0.000000 0.000000
0.880543 1.433240 -0.168663 0.000000 0.000000 0.000000
0.690173 1.438480 -0.444848 0.000000 0.000000 0.000000
0.886568 1.255310 -0.416339 0.000000 0.000000 0.000000
0.915629 1.351710 -0.145132 0.000000 0.000000 0.000000
0.885724 1.401930 -0.114405 0.000000 0.000000 0.000000
0.875435 1.387570 -0.150599 0.000000 0.000000 0.000000
0.918249 1.420230 -0.168805 0.000000 0.000000 0.000000
0.993048 1.582150 -0.366137 0.000000 0.000000 0.000000
0.120556 1.640150 -0.102061 0.000000 0.000000 0.000000
0.025447 1.629050 -0.103906 0.000000 0.000000 0.000000
-0.276215 2.130030 -0.304075 0.000000 0.000000 0.000000
-0.249885 2.011770 -0.212359 0.000000 0.000000 0.000000
0.982086 1.986640 -0.454162 0.000000 0.000000 0.000000
-0.225939 1.404190 -0.310407 0.000000 0.000000 0.000000
-0.217649 1.323330 -0.272993 0.000000 0.000000 0.000000
0.223966 1.498450 -0.299378 0.000000 0.000000 0.000000
0.203536 1.492010 -0.318712 0.000000 0.000000 0.000000
-0.222305 1.220530 -0.228184 0.000000 0.000000 0.000000
0.268707 1.565320 -0.196105 0.000000 0.000000 0.000000
0.296470 1.447760 -0.181632 0.000000 0.000000 0.000000
-0.225290 1.198400 -0.320362 0.000000 0.000000 0.000000
-0.221656 1.264170 -0.067936 0.000000 0.000000 0.000000
0.939649 1.428860 -0.168347 0.000000 0.000000 0.000000
0.883194 1.382230 -0.142215 0.000000 0.000000 0.000000
0.978358 1.377540 -0.190915 0.000000 0.000000 0.000000
0.875807 1.412960 -0.144707 0.000000 0.000000 0.000000
0.336282 1.276860 -0.294825 0.000000 0.000000 0.000000
0.273682 1.281010 -0.269686 0.000000 0.000000 0.000000
0.315718 1.412230 -0.427303 0.000000 0.000000 0.000000
0.393079 1.359670 -0.437842 0.000000 0.000000 0.000000
0.767580 1.464380 -0.053739 0.000000 0.000000 0.000000
0.419805 1.483790 -0.071685 0.000000 0.000000 0.000000
0.357132 1.425550 -0.457361 0.000000 0.000000 0.000000
0.257163 1.436220 -0.308918 0.000000 0.000000 0.000000
0.262522 1.474320 -0.342307 0.000000 0.000000 0.000000
0.228469 1.496770 -0.308904 0.000000 0.000000 0.000000
0.225781 1.498160 -0.320231 0.000000 0.000000 0.000000
0.263318 1.478240 -0.318832 0.000000 0.000000 0.000000
0.258945 1.470130 -0.329811 0.000000 0.000000 0.000000
0.179197 1.533390 -0.147562 0.000000 0.000000 0.000000
0.325148 1.614870 -0.216799 0.000000 0.000000 0.000000
0.319831 1.563230 -0.164025 0.000000 0.000000 0.000000
0.229460 1.483440 -0.363487 0.000000 0.000000 0.000000
0.205000 1.442290 -0.482840 0.000000 0.000000 0.000000
0.572036 2.041170 -0.525215 0.000000 0.000000 0.000000
0.991434 1.852460 -0.379138 0.000000 0.000000 0.000000
0.986300 1.681180 -0.462053 0.000000 0.000000 0.000000
1.008580 1.821820 -0.154102 0.000000 0.000000 0.000000
0.982434 1.966580 -0.477660 0.000000 0.000000 0.000000
0.984458 1.662340 -0.452427 0.000000 0.000000 0.000000
0.988462 1.654940 -0.444659 0.000000 0.000000 0.000000
1.108070 1.590980 -0.404007 0.000000 0.000000 0.000000
0.971926 2.120030 -0.242414 0.000000 0.000000 0.000000
0.980293 2.010300 -0.431527 0.000000 0.000000 0.000000
0.961118 2.043730 -0.524218 0.000000 0.000000 0.000000
0.983549 1.978620 -0.345779 0.000000 0.000000 0.000000
0.976137 1.929600 -0.463337 0.000000 0.000000 0.000000
1.111700 1.813310 -0.149599 0.000000 0.000000 0.000000
1.005670 1.853980 -0.479983 0.000000 0.000000 0.000000
0.979040 1.989490 -0.349298 0.000000 0.000000 0.000000
0.980110 1.943030 -0.477424 0.000000 0.000000 0.000000
0.920881 1.450270 -0.147955 0.000000 0.000000 0.000000
0.921345 1.347830 -0.029786 0.000000 0.000000 0.000000
0.973211 1.361470 -0.292495 0.000000 0.000000 0.000000
0.983109 1.545570 -0.092501 0.000000 0.000000 0.000000
0.988612 1.489810 -0.381692 0.000000 0.000000 0.000000
0.976847 1.306960 -0.254006 0.000000 0.000000 0.000000
0.890003 1.436450 -0.189432 0.000000 0.000000 0.000000
0.975179 1.449810 -0.102132 0.000000 0.000000 0.000000
-0.005668 1.876800 -0.609442 0.000000 0.000000 0.000000
-0.083694 1.940030 -0.591437 0.000000 0.000000 0.000000
0.135330 1.908610 -0.584374 0.000000 0.000000 0.000000
0.161450 1.537710 -0.090894 0.000000 0.000000 0.000000
0.270501 2.020720 -0.375609 0.000000 0.000000 0.000000
0.274742 2.020070 -0.289746 0.000000 0.000000 0.000000
0.988539 1.485520 -0.380959 0.000000 0.000000 0.000000
0.971936 1.397220 -0.450146 0.000000 0.000000 0.000000
0.930497 1.450620 -0.152468 0.000000 0.000000 0.000000
0.836606 1.434870 -0.439679 0.000000 0.000000 0.000000
0.975807 1.560800 -0.081092 0.000000 0.000000 0.000000
0.965394 1.454540 -0.107493 0.000000 0.000000 0.000000
0.927112 1.722660 -0.297359 0.000000 0.000000 0.000000
0.982369 1.750770 -0.301221 0.000000 0.000000 0.000000
0.935653 1.727940 -0.297332 0.000000 0.000000 0.000000
0.215255 1.413910 -0.123388 0.000000 0.000000 0.000000
0.153104 1.339980 -0.029848 0.000000 0.000000 0.000000
0.165368 1.510680 -0.125598 0.000000 0.000000 0.000000
0.156307 1.539860 -0.096685 0.000000 0.000000 0.000000
0.161747 1.361590 -0.083192 0.000000 0.000000 0.000000
0.187234 1.354690 -0.057164 0.000000 0.000000 0.000000
0.574153 2.092560 -0.326565 0.000000 0.000000 0.000000
0.165328 1.372450 -0.116899 0.000000 0.000000 0.000000
0.375752 2.111900 -0.240736 0.000000 0.000000 0.000000
0.276261 2.015270 -0.347479 0.000000 0.000000 0.000000
0.293433 2.017070 -0.298556 0.000000 0.000000 0.000000
0.582045 2.117860 -0.244934 0.000000 0.000000 0.000000
-0.137407 1.934000 -0.576746 0.000000 0.000000 0.000000
-0.206031 2.163940 -0.235830 0.000000 0.000000 0.000000
-0.229594 1.451250 -0.394424 0.000000 0.000000 0.000000
-0.225490 1.666110 -0.238552 0.000000 0.000000 0.000000
-0.228402 1.675860 -0.325998 0.000000 0.000000 0.000000
-0.230145 1.649760 -0.266715 0.000000 0.000000 0.000000
-0.226739 1.667480 -0.203256 0.000000 0.000000 0.000000
-0.405091 1.823150 -0.493461 0.000000 0.000000 0.000000
-0.225698 1.725550 -0.339984 0.000000 0.000000 0.000000
-0.227176 1.517850 -0.175338 0.000000 0.000000 0.000000
-0.228782 1.604330 -0.131711 0.000000 0.000000 0.000000
0.049562 2.188340 -0.257007 0.000000 0.000000 0.000000
-0.289332 1.972120 -0.344852 0.000000 0.000000 0.000000
-0.261057 1.687460 -0.150756 0.000000 0.000000 0.000000
-0.256974 1.700350 -0.122549 0.000000 0.000000 0.000000
0.982082 1.502670 -0.379671 0.000000 0.000000 0.000000
0.980602 1.447140 -0.314087 0.000000 0.000000 0.000000
1.047570 1.601360 -0.332787 0.000000 0.000000 0.000000
0.977082 1.315320 -0.227311 0.000000 0.000000 0.000000
0.984729 1.637830 -0.433775 0.000000 0.000000 0.000000
0.963633 1.499890 -0.084647 0.000000 0.000000 0.000000
1.119900 1.655280 -0.114439 0.000000 0.000000 0.000000
0.887091 1.408040 -0.176771 0.000000 0.000000 0.000000
0.843227 1.560530 -0.084247 0.000000 0.000000 0.000000
0.980114 1.312150 -0.280420 0.000000 0.000000 0.000000
0.978165 1.954730 -0.479809 0.000000 0.000000 0.000000
0.812991 1.749290 -0.125831 0.000000 0.000000 0.000000
1.121140 1.741890 -0.130127 0.000000 0.000000 0.000000
0.902758 2.023510 -0.623714 0.000000 0.000000 0.000000
-0.263072 1.661940 -0.208902 0.000000 0.000000 0.000000
-0.255500 1.757410 -0.301445 0.000000 0.000000 0.000000
-0.254218 1.732810 -0.333711 0.000000 0.000000 0.000000
-0.256575 1.786160 -0.157968 0.000000 0.000000 0.000000
-0.253508 2.020710 -0.481075 0.000000 0.000000 0.000000
0.750255 1.247980 -0.415479 0.000000 0.000000 0.000000
1.135100 1.743150 -0.128831 0.000000 0.000000 0.000000
0.938255 1.467610 -0.120616 0.000000 0.000000 0.000000
0.883596 1.415840 -0.083485 0.000000 0.000000 0.000000
0.772343 1.581310 -0.080567 0.000000 0.000000 0.000000
0.943270 1.416490 -0.126161 0.000000 0.000000 0.000000
0.928515 1.435280 -0.087415 0.000000 0.000000 0.000000
0.997383 1.350780 -0.185109 0.000000 0.000000 0.000000
-0.214364 1.488610 -0.399662 0.000000 0.000000 0.000000
-0.228137 1.381000 -0.056126 0.000000 0.000000 0.000000
-0.225915 1.353820 -0.158070 0.000000 0.000000 0.000000
0.716568 1.645210 -0.100910 0.000000 0.000000 0.000000
1.036100 1.623890 -0.435059 0.000000 0.000000 0.000000
0.982122 1.934830 -0.426370 0.000000 0.000000 0.000000
0.981148 1.964950 -0.326090 0.000000 0.000000 0.000000
0.986248 1.836330 -0.398060 0.000000 0.000000 0.000000
0.956632 2.006160 -0.515668 0.000000 0.000000 0.000000
1.090710 1.621590 -0.269862 0.000000 0.000000 0.000000
0.987951 1.573760 -0.403349 0.000000 0.000000 0.000000
0.025677 1.575760 -0.087342 0.000000 0.000000 0.000000
0.160781 2.077550 -0.698500 0.000000 0.000000 0.000000
-0.252770 2.084420 -0.235522 0.000000 0.000000 0.000000
0.991011 1.884430 -0.345125 0.000000 0.000000 0.000000
0.201508 1.426590 -0.107159 0.000000 0.000000 0.000000
0.114527 1.356980 -0.093073 0.000000 0.000000 0.000000
0.230748 1.437200 -0.129572 0.000000 0.000000 0.000000
0.256512 1.445490 -0.187785 0.000000 0.000000 0.000000
0.169654 1.451660 -0.158266 0.000000 0.000000 0.000000
0.171804 1.476710 -0.074482 0.000000 0.000000 0.000000
0.237796 1.466340 -0.078851 0.000000 0.000000 0.000000
0.171090 1.476220 -0.076145 0.000000 0.000000 0.000000
0.250391 1.441250 -0.179134 0.000000 0.000000 0.000000
0.565124 1.522870 -0.500575 0.000000 0.000000 0.000000
0.187005 1.407490 -0.125673 0.000000 0.000000 0.000000
0.170014 1.330130 -0.120922 0.000000 0.000000 0.000000
0.565445 1.564360 -0.514607 0.000000 0.000000 0.000000
0.932043 1.724130 -0.296603 0.000000 0.000000 0.000000
0.229231 1.385970 -0.143766 0.000000 0.000000 0.000000
0.293720 1.416820 -0.116397 0.000000 0.000000 0.000000
0.266443 1.454100 -0.159282 0.000000 0.000000 0.000000
0.155489 1.324900 -0.111929 0.000000 0.000000 0.000000
0.164963 1.361800 -0.112252 0.000000 0.000000 0.000000
0.166742 1.492540 -0.059974 0.000000 0.000000 0.000000
0.157981 1.382950 -0.084466 0.000000 0.000000 0.000000
0.155519 1.251860 -0.082795 0.000000 0.000000 0.000000
0.167275 1.383720 -0.123691 0.000000 0.000000 0.000000
0.438912 2.047970 -0.202421 0.000000 0.000000 0.000000
0.327313 2.038630 -0.278695 0.000000 0.000000 0.000000
0.571886 2.081750 -0.418267 0.000000 0.000000 0.000000
0.577088 2.218620 -0.328087 0.000000 0.000000 0.000000
0.222980 1.465330 -0.081248 0.000000 0.000000 0.000000
0.120971 1.353140 -0.126763 0.000000 0.000000 0.000000
0.955185 1.412100 -0.050936 0.000000 0.000000 0.000000
0.938586 1.419100 -0.099519 0.000000 0.000000 0.000000
0.942140 1.404040 -0.168202 0.000000 0.000000 0.000000
0.882299 1.417180 -0.082618 0.000000 0.000000 0.000000
0.952635 1.422460 -0.045681 0.000000 0.000000 0.000000
0.880943 1.419540 -0.130894 0.000000 0.000000 0.000000
0.961376 1.407410 -0.038357 0.000000 0.000000 0.000000
0.975715 1.375370 -0.032909 0.000000 0.000000 0.000000
0.943415 1.405210 -0.074479 0.000000 0.000000 0.000000
0.870963 1.390890 -0.149649 0.000000 0.000000 0.000000
0.961519 1.437870 -0.151799 0.000000 0.000000 0.000000
0.745740 1.256640 -0.432285 0.000000 0.000000 0.000000
0.620862 2.041620 -0.522370 0.000000 0.000000 0.000000
0.661371 2.063380 -0.431976 0.000000 0.000000 0.000000
0.579258 2.046670 -0.526491 0.000000 0.000000 0.000000
0.489973 2.173950 -0.255742 0.000000 0.000000 0.000000
0.365315 2.107170 -0.249985 0.000000 0.000000 0.000000
0.317684 2.022410 -0.288540 0.000000 0.000000 0.000000
0.581684 2.120910 -0.239869 0.000000 0.000000 0.000000
-0.259152 1.764390 -0.598141 0.000000 0.000000 0.000000
-0.256071 1.757250 -0.301684 0.000000 0.000000 0.000000
-0.255718 1.733900 -0.335838 0.000000 0.000000 0.000000
-0.286365 1.932570 -0.513931 0.000000 0.000000 0.000000
-0.252568 1.704070 -0.457410 0.000000 0.000000 0.000000
0.136492 1.912670 -0.584400 0.000000 0.000000 0.000000
-0.274558 1.981530 -0.297026 0.000000 0.000000 0.000000
-0.288072 2.001980 -0.227006 0.000000 0.000000 0.000000
-0.258102 1.630600 -0.340528 0.000000 0.000000 0.000000
-0.257657 1.602470 -0.450799 0.000000 0.000000 0.000000
-0.268610 1.998520 -0.264818 0.000000 0.000000 0.000000
-0.253970 1.578430 -0.163811 0.000000 0.000000 0.000000
-0.261883 1.640170 -0.341542 0.000000 0.000000 0.000000
0.180272 1.417120 -0.042822 0.000000 0.000000 0.000000
0.996287 1.430930 -0.295769 0.000000 0.000000 0.000000
0.719739 1.458270 -0.052796 0.000000 0.000000 0.000000
0.881063 1.442850 -0.054104 0.000000 0.000000 0.000000
0.957743 1.344070 -0.173177 0.000000 0.000000 0.000000
0.989290 1.494080 -0.382822 0.000000 0.000000 0.000000
0.973628 1.539690 -0.159667 0.000000 0.000000 0.000000
0.984543 1.533180 -0.194575 0.000000 0.000000 0.000000
0.988665 1.538840 -0.244367 0.000000 0.000000 0.000000
0.990573 1.858660 -0.273165 0.000000 0.000000 0.000000
0.889500 1.411960 -0.132776 0.000000 0.000000 0.000000
0.925083 1.360310 -0.158621 0.000000 0.000000 0.000000
0.976501 1.357030 -0.157315 0.000000 0.000000 0.000000
0.990234 1.545010 -0.090886 0.000000 0.000000 0.000000
0.892405 1.421800 -0.442502 0.000000 0.000000 0.000000
0.977715 1.291790 -0.336749 0.000000 0.000000 0.000000
0.864681 1.419400 -0.115143 0.000000 0.000000 0.000000
0.985869 1.868190 -0.486699 0.000000 0.000000 0.000000
0.914186 1.646500 -0.097660 0.000000 0.000000 0.000000
0.975128 2.043810 -0.532076 0.000000 0.000000 0.000000
0.617179 1.928630 -0.173253 0.000000 0.000000 0.000000
0.980128 1.963900 -0.397037 0.000000 0.000000 0.000000
0.989488 1.653120 -0.449627 0.000000 0.000000 0.000000
0.889579 2.011640 -0.192485 0.000000 0.000000 0.000000
0.669166 1.945900 -0.176477 0.000000 0.000000 0.000000
0.988680 1.858790 -0.377654 0.000000 0.000000 0.000000
1.029250 1.851940 -0.476649 0.000000 0.000000 0.000000
0.723549 2.138510 -0.245377 0.000000 0.000000 0.000000
0.973286 1.950270 -0.499816 0.000000 0.000000 0.000000
0.992361 1.787880 -0.359634 0.000000 0.000000 0.000000
-0.331214 1.998830 -0.216811 0.000000 0.000000 0.000000
0.980090 2.011830 -0.431998 0.000000 0.000000 0.000000
1.119340 1.638180 -0.198046 0.000000 0.000000 0.000000
0.974445 1.467800 -0.088479 0.000000 0.000000 0.000000
0.976840 1.317360 -0.281155 0.000000 0.000000 0.000000
0.976848 1.437610 -0.263448 0.000000 0.000000 0.000000
0.931270 1.435290 -0.171407 0.000000 0.000000 0.000000
0.970294 1.453330 -0.105938 0.000000 0.000000 0.000000
0.976872 1.284190 -0.339374 0.000000 0.000000 0.000000
0.881751 1.429660 -0.166728 0.000000 0.000000 0.000000
0.976564 1.965910 -0.419750 0.000000 0.000000 0.000000
0.989410 1.637730 -0.449966 0.000000 0.000000 0.000000
0.973403 1.430450 -0.316415 0.000000 0.000000 0.000000
0.884804 1.432770 -0.168923 0.000000 0.000000 0.000000
0.884482 1.411460 -0.085710 0.000000 0.000000 0.000000
0.874279 1.414120 -0.144044 0.000000 0.000000 0.000000
0.882835 1.444100 -0.057443 0.000000 0.000000 0.000000
1.009710 1.856090 -0.480839 0.000000 0.000000 0.000000
-0.256598 1.732680 -0.336388 0.000000 0.000000 0.000000
-0.252729 1.663090 -0.316858 0.000000 0.000000 0.000000
-0.259622 1.725730 -0.473632 0.000000 0.000000 0.000000
-0.257852 1.759580 -0.596016 0.000000 0.000000 0.000000
-0.276053 1.990920 -0.283217 0.000000 0.000000 0.000000
-0.260551 1.789520 -0.154669 0.000000 0.000000 0.000000
0.119304 1.971390 -0.589387 0.000000 0.000000 0.000000
